2002.01,2001.13,2001.15,2001.29,2002.29,2001.13,2000.84,2000.82,2000.98,2000.19,2002.66,2001.95,2002.53,2002.01,2001.9,2001.66,2001.5,2001.39,2001.22,2000.9,2000.69,2000.6,2000.55,2000.52,2000.51,2000.49,2000.49,2000.48,2000.47,2000.46,2000.46,2000.56,2000.55,2000.42,2000.39,2000.41,2000.64,2001.98,2000.52,2000.5,2000.53,2000.49,2000.59,1998.22,2000.42,2000.37,2000.37,2000.49,2000.89,1997.6,2001.62,2000.59,2000.63,2000.74,2000.91,2000.95,2000.85,2001.46,2001.22,2001.37,2001.48,2001.49,2000.31,2001.33,2001.48,2001.63,2001.39,2000.86,2000.62,2000.76,2001.28,2000.96,2000.65,2000.49,2000.48,2000.71,2002.11,1996.59,1992.25,1995.97,2002.28,2000.8,2000.49,2000.43,2000.43,2000.44,2000.43,2000.41,2000.4,2000.47,1999.43,2001.23,2000.46,2000.42,2000.51,2001.79,2001.03,2003.52,2003.23,2001.05,2000.63,1998.96,2000.59,2000.51,2000.6,2000.82,2001.31,2001.96,2001.9,2001.34,2001.03,2001.01,2000.99,2000.88,2000.87,2000.77,2000.73,2000.8,2000.96,2001.26,2001.86,2003.13,2005.88,2010.57,2002.58,1999.96,2002.2,2009.7,2003.12,2003.51,2002.04,2001.46,2001.76,2001.15,2001.06,2000.87,2000.76,2000.73,2000.72,2000.74,2000.84,2001.48,1996.35,2001.34,1998.71,1995.94,2001.66,2000.87,2000.83,2001.01,2000.88,2000.82,2000.83,2001.16,2000.53,2001.09,2000.93,2001.72,2001,2001.02,2001.34,2001.1,2001.09,2001.16,2001.77,2001.21,2001.25,2001.33,2001.42,2001.42,2001.36,2001.34,2001.64,2001.85,2001.73,1997.56,1998.49,2001.66,2002.06,2001.81,2001.99,2002.26,2001.72,2001.66,2001.99,2003.71,2006.89,2003.24,2001.88,2001.48,2001.43,2001.68,2002.35,2002.02,2000.62,1999.1,2001.29,2001.54,2001.25,2001.3,2001.72,2000.03,2001.88,2001.77,2002.25,2003.99,2006.26,2009.28,2008.56,2005.3,2004.1,2000.78,2002.64,2002.51,1999.67,2001.5,2001.14,2001.16,2001.41,2001.91,2001.77,2001.1,2000.97,2000.94,2000.91,2000.9,2000.95,2002.7,2001.12,2001.35,2001.88,2000.97,2000.83,2000.9,2002.51,2001.69,2000.87,2000.84,2001.64,1999.17,2001.15,2000.79,2000.78,2001.03,2001.54,2001.08,2000.85,2001.35,2001.64,2000.67,2000.61,2000.59,2000.58,2000.74,2000.67,2000.59,2001.14,2000.73,2000.56,2000.56,1998.69,2000.69,2001.16,2001.07,2000.7,2003.03,1997.08,1999.42,2002.68,2001.17,2001.2,1999.3,2003.16,1995.69,2000.28,1998.47,2001.1,2000.78,2000.76,2000.76,2000.91,2001.34,2001.36,2000.94,2001.62,2001.15,1999.18,2001.96,2002.7,2004.71,2010.08,2006.24,1993.95,1986.06,1981.75,1980.67,1982.73,1988.08,1997.21,2011.16,2008.48,2005.38,2004.7,2002.77,2003.8,2003.38,2002.16,2001.24,2001.16,2000.68,2000.56,2000.51,2000.53,2001.2,2000.74,2000.46,2000.49,1998.66,2001.77,1996.97,2002.09,2000.78,2000.71,2000.73,2001.22,1996.59,1998.92,2000.63,2000.38,2000.31,2000.27,2000.24,2000.22,2000.32,2000.24,2000.18,2000.17,2000.18,2000.19,2000.23,2000.39,2001.49,2000.22,2000.19,2000.16,2000.17,2000.24,2000.27,2000.4,2000.67,1998.87,2000.1,2000.2,2000.16,2000.16,2000.2,1999.62,1999.53,2000.64,2000.32,2000.24,2000.43,2000.56,2000.9,1998.31,2000.42,2000.54,2000.14,2000.24,1998.67,2000.13,2000.09,2000.09,2000.19,1998.99,2000.13,2000.09,2000.09
2001.19,2001.13,2002.92,2001.72,2001,2000.9,2000.84,2000.82,2000.95,2001.44,2001,2001.03,2001.97,2001.77,2001.35,2001.63,2000.73,2001.58,2002.34,2001.31,2000.75,2000.63,2000.58,2000.55,2000.54,2000.54,2000.91,2000.96,2000.51,2000.52,2000.56,2001.07,2001.48,2000.44,2000.42,2000.46,2000.92,2000.98,2001.23,2001,2001.51,2000.89,2000.56,1999.93,2000.89,2000.43,2000.43,2000.44,2000.7,2000.61,2001.1,2000.66,2000.8,2001.65,2003.07,2002.53,2001.42,2001.54,2001.94,2002.44,2002.79,2002.76,2002.41,2001.9,2001.78,1998.79,2001.2,2000.76,2000.93,2000.66,2000.67,2001.03,2000.68,2001.59,2000.73,2000.94,2002.11,2003.92,1996.1,1999.23,2001.88,2000.03,2000.52,2000.51,2000.89,2000.86,2000.61,2000.55,2000.59,2000.51,2000.68,1998.11,2000.54,2000.57,2000.69,2000.87,2000.65,2000.75,2000.74,2000.57,2000.48,2000.47,2000.46,2000.49,2000.55,2000.62,2000.75,2000.87,2000.89,2000.84,2000.94,2001.08,2000.9,2000.28,2001.08,1999.44,2000.7,2000.74,2000.87,2001.08,2001.54,2000.57,2003.46,2005.16,2007.68,2009.41,2008.27,2006.86,2004.15,2002.81,2001.28,2001.3,2001.5,2002.24,1999.77,2001.54,2000.78,2000.7,2000.7,2000.72,2000.91,1999.94,1996.47,2001.75,1997.39,1998.56,2000.55,2001.01,2000.83,2001.39,2001.42,2000.83,2000.8,2000.87,2001.83,2000.98,2000.88,2000.91,2000.93,2001.07,2000.28,2001.41,2001.26,2001.19,2001.13,2001.11,2001.18,2001.91,2002.9,2001.98,2001.29,2001.25,2001.44,1998.58,2003.58,2002.34,2002.6,2002.67,2002.26,2002.11,2002.07,2001.95,2001.84,2001.88,2002.75,1999.87,1995.39,1999.39,2003.19,2001.69,2001.8,2002.11,1997.7,2002.2,2001.91,2001.47,2001.26,2000.85,2001.26,2001.41,2001.92,2002.13,2002.03,2002.02,2002.79,2005.89,2001.43,1995.49,1995.71,2003.17,2011.43,2003.05,2002.14,2000.6,2003.72,2001.62,2001.13,2001.05,2001.06,2001.08,2001.34,2000.99,2000.93,2000.91,2000.89,2000.87,2000.97,1998.88,2001.27,2000.96,2001.01,2001.28,2000.83,2001.33,1998.59,2000.87,2000.79,2000.84,1999.92,2002.21,2001.03,2000.86,2000.84,2000.87,2000.99,2002.82,2001.24,2001.64,2002.14,2000.66,2000.6,2000.58,2000.58,2000.75,2001.04,2001.36,2002.81,2000.36,2000.91,2000.56,2001.26,2001.14,2000.66,2000.95,1999.49,1997.2,1991.84,1993.95,2004.56,2001.26,2001.26,2001.64,2003.6,1996.06,2000.68,1999.8,1999.78,2000.74,2000.7,2000.7,2000.74,2002.21,2000.8,2000.86,2001.63,2001.28,2001.64,2002.01,2002.58,2004.5,2009.95,2009.59,1996.93,1988.85,1984.44,1983.34,1985.44,1990.92,2000.28,2014.68,2008.45,2007.47,2010.97,2007.5,2010.07,2005.28,2002.69,2001.57,2002.03,2000.75,2000.7,2001.28,2000.86,2000.42,2000.89,2000.51,2000.52,2000.63,2000.85,2001.23,2001.08,2001.04,2001.06,2001,2001.04,2001.61,2001.17,2000.58,2000.42,2000.34,2000.29,2000.25,2000.23,2000.32,2000.24,2000.18,2000.19,2000.28,2000.46,2000.91,2000.54,2003.1,2000.4,1998.92,2000.28,2000.23,1998.08,2000.46,2001.42,2001.7,2002,2000.44,2000.25,2000.16,2000.24,2001.15,2000.19,2000.27,2000.21,2000.92,2000.8,2000.38,2000.26,2000.78,2000.27,2000.19,2000.15,2000.13,2000.17,2000.39,2000.14,2000.12,2000.14,2000.23,2000.46,2000.15,2000.11,2000.09
2001.46,2001.37,2002.2,2001.1,2001.03,2000.91,2000.87,2000.85,2000.85,2002.44,2001.41,2000.93,2001.3,2001.24,2001.21,2002.32,2000.05,1995.89,2001.13,2001.6,2000.88,2000.7,2000.64,2000.62,2000.61,2000.64,2001.09,2000.84,2000.61,2000.77,1999.67,2000.96,2000.62,2000.46,2000.44,2000.49,2001.23,1999.81,2002.44,2001.42,1995.78,2002.26,2000.75,2000.97,2000.68,2000.66,2000.79,2000.58,2000.5,2000.55,2000.66,2001.9,2001.88,2002.46,1995.3,1999.21,2002.22,2002.39,2003.64,2005.49,2007.09,2006.87,2005.11,2003.74,2002.89,2001.51,2001.09,1998.61,2001.04,1998.63,2000.87,2001.06,1996.91,2003.07,1999.88,2000.88,2002.4,2003.48,2002.31,2002.14,2001.74,2000.78,2000.55,2000.71,2001.19,2001.53,2001.33,2001.02,2001.89,2002.97,2000.48,2000.48,2000.57,2001,1999.63,2000.85,2001.02,2000.85,2000.54,2000.46,2000.43,2000.43,2000.44,2000.76,2001.62,2000.56,2000.65,2000.79,2000.74,2000.84,2000.4,2001.61,1998.58,2000.71,2000.63,2000.69,2000.65,2000.69,2000.78,2000.95,2001.26,2001.74,2002.04,2002.61,2003.29,2003.64,2005.55,1999.12,2000.31,2001.8,2001.39,2001.64,2000.5,2000.81,2001.15,2001.71,2000.75,2000.68,2000.67,2000.7,2000.81,2001.8,2002.14,2001.12,2000.91,2001.01,2001.8,1998.81,2000.85,1999.14,2000.81,2000.83,2000.83,2000.84,2001.25,2001.23,2001.08,2001.64,2000.96,2000.03,1998.06,2002.12,2002.77,2001.92,2001.26,2001.1,2001.12,2001.72,1997.15,2001.25,2001.28,2001.22,2001.32,2001.68,2001.84,1999.64,2002.94,2002.85,2002.99,2003.13,2004.89,2002.63,2002.63,2004.31,2003.31,2005.11,1993.41,1997.26,2002.98,2001.56,2001.48,2003.49,1999.54,2002.33,2001.28,2001.26,2001.14,2001.17,2001.3,2001.26,2004.41,1999.51,2002.47,2002.56,2003.53,2007.23,1994.87,1989.69,1989.59,1995.87,2010.37,2003.06,2001.84,2002.06,1997.09,2003.95,2000.86,2001,2000.97,2000.97,1998.98,2000.94,2000.97,2001.11,2000.97,2000.86,2000.84,2000.9,2000.87,2001.4,1999.52,2001.71,2000.82,2000.82,2000.87,2000.78,2000.82,2000.87,2000.84,2000.87,2001.01,2001.11,1999.91,2000.97,2000.93,2001.47,2001.73,2000.8,2000.71,2000.64,2000.6,2000.58,2000.59,2001.32,1999.26,2001.94,2001.27,2000.68,2000.67,1998.59,2000.62,2000.62,2000.64,2000.86,2002,1999.61,1994.04,1996.24,2004.07,2001.12,2000.74,2000.75,2001.5,2001.84,2001.35,2001.84,2001.05,2000.8,1997.17,2000.92,2000.78,2000.96,2000.78,2000.75,2000.84,2000.97,2001.22,2001.61,2002.34,2004.3,2002.75,2008.4,2003.73,1995.16,1990.52,1989.36,1991.57,1997.34,2007.3,2010.05,2008.6,2009.18,1998.66,1995,1997.11,2005.54,2004.75,2002.4,2001.23,2000.83,2000.84,1999.5,1998.93,1999.5,2001.68,2000.69,2000.61,2000.72,2000.92,2001.18,2001.46,2001.79,2000.27,2001.69,2001.44,2001.14,2000.85,2000.64,2000.57,2000.43,2000.33,2000.29,2000.26,2000.23,2000.2,2000.19,2000.24,2001.72,1998.43,1999.17,2000.86,2002.18,2001.53,2000.33,2000.22,2000.3,1999.24,2000.75,1999.75,1994.23,2000.19,2000.93,2000.54,2000.16,2000.15,2000.15,2000.26,2002.41,2000.2,2000.27,2000.43,2001.26,1998.86,2000.28,2000.22,2000.15,2000.32,2000.21,2000.28,2000.19,2000.2,2000.24,2000.59,2002.56,2000.23,2000.41,2000.21,2000.14
2002.2,2002.13,2003.09,2001.76,2001.1,2000.97,2001.03,2001.44,2000.91,1999.58,2002.09,2001.16,2002.49,2000.98,2001.26,1997.82,1996.96,1992.97,1997.9,2002.1,2001.15,2000.86,2000.77,1999.07,2000.87,1998.89,2002.38,1999.56,2000.97,2000.98,1996.68,2000.29,2000.6,2000.49,2000.51,2000.51,2000.72,2002.11,2001.21,2001.35,1995.74,2002.22,2000.78,2000.99,1998.26,2003.99,1998.03,2001.6,2000.59,2000.52,2000.66,1999.14,2002.71,2002.84,1998.59,2003.25,2002.68,2004.04,2008.2,2006.26,2001.82,2002.17,2007.85,2007.83,2003.58,2001.88,2001.2,2000.93,1999.64,2000.76,2000.99,2000.58,1999.52,2000.93,2000.64,2000.82,2001.67,2005.79,2001.6,2002.42,2002,2000.66,2000.7,2001.34,1996.9,2000.46,2002.1,2002.23,1999.74,1998.3,2000.51,2000.43,2000.62,2000.3,1999.49,2001.51,1997.12,1999.58,2000.64,2000.44,2000.41,2000.43,2000.52,2000.55,2000.52,2000.57,2000.84,1998.77,2001.11,2000.92,1999.66,2001.19,2001.21,2000.66,2000.92,1998.3,2000.69,2000.66,2000.73,2000.89,1998.82,2001.35,2001.39,2002.07,2002.46,2002.37,2002.05,2002.2,2001.78,2001.99,2001.2,2001.26,2000.91,1998.93,2000.93,2000.76,2000.68,2000.66,2000.66,2000.68,2000.72,2000.87,1998.98,2000.79,2000.74,2000.77,2001.13,2000.96,2000.79,2000.89,2001.05,1999.57,2001.58,2001.18,2000.91,2000.9,2001.05,2001.81,2000.93,2001.17,2003.36,2001.52,1995.8,2000.59,2001.63,2001.12,2001.14,2001.46,2002.11,2001.46,2001.2,2001.37,2001.57,2001.47,2001.77,2002.51,2003.21,2004.32,2005.85,2001.82,2005.71,2004.33,2003.81,2003.11,2002.87,2005.3,2000.16,2004.35,2002.14,2001.42,2001.56,2002.84,2002.15,2001.33,2001.2,2001.22,2001.11,2001.12,2001.27,2002.82,2003.12,1995.28,1997.92,2002.94,2003.7,2006.78,1993.76,1990.3,1990.33,1994.81,2008.07,2003.03,2001.76,2001.5,2001.79,2001.31,2001.08,2000.96,2000.95,2000.93,2000.91,2000.91,2001.34,1998.11,2002.11,2000.88,2000.81,2000.8,1999.95,2000.91,2000.92,2000.88,2001.06,2000.81,2000.76,2000.76,2000.89,2001.06,2000.83,2000.9,2001.13,1999.82,2001.53,2001.25,2001.81,2001.1,2000.91,2000.79,2000.71,2000.65,2000.61,2000.59,2000.59,2001.19,2001.09,2000.72,2000.59,2000.73,2000.93,2000.66,2001.05,2001.09,2000.71,2000.74,2001.14,2002.47,2004.77,2003.47,2001.62,2000.84,2000.64,2000.63,2001.39,2000.94,2000.93,1999.51,2000.84,2001.01,1998.64,2000.23,2000.91,2000.85,2000.77,2000.75,2000.81,2000.94,2001.36,2001.6,2002.02,2003.54,2001.24,2002.53,2015.16,2005.66,2000.57,1999.29,2001.7,2008.05,2013.51,2008.27,2009.06,2001.84,1992.45,1989.15,1991.14,1998.89,2003.48,2001.62,2002.58,2001.31,2000.71,2000.85,2002.15,2001.63,1997.99,2000.89,2000.75,2001.14,2001.31,2001.88,2002.72,2003.63,2004.07,2004.34,2005.55,2001.81,2001.15,2000.83,1998.88,2000.77,2000.39,2000.41,2000.5,2000.32,2000.25,2000.22,2000.27,2001.4,2002.46,2000.42,2000.87,1997.01,2002.14,1998.29,2000.34,2000.26,2001.17,2001.15,2002.28,1998.33,2002.13,2000.46,2000.23,2000.16,2000.15,2000.15,2000.35,2000.04,2000.34,2000.63,1998.27,2001.82,2000.71,2000.19,2000.14,2000.13,2000.5,2000.38,1999.25,2001.09,2000.41,2000.36,2000.44,2000.84,1999.96,2000.34,2000.56,2000.28
2004.54,2004.21,1997.23,2002.26,2001.28,2001.03,2000.93,2000.89,2001.51,2001.74,2001.17,2000.81,2000.81,2001.27,2001.04,2001.7,2002.7,1998.6,2004.49,1999.71,2003.3,2001.53,2000.91,2000.99,2000.81,2000.93,2001,1999.97,2001.08,2000.81,2000.85,2000.69,2000.56,2000.57,1999.86,2000.92,2000.55,2001.11,2000.64,2001.02,1999.97,2000.96,2000.59,2001.32,1995.71,2001.28,1995.6,2003.81,2000.8,2001.29,2000.58,2000.82,2000.9,2001.15,2001.8,2001.75,2001.16,2006.7,2004.59,1995.41,1989.5,1991.8,1996.76,2007.22,2005.47,2002.56,2001.41,2000.93,2000.76,1999.7,2000.78,2000.48,2000.55,2000.61,2000.46,2000.43,2000.5,2000.59,2000.29,2000.81,2000.58,2000.63,1998.18,2001.89,1998.85,1992.57,1993.98,2003.75,2001.34,2000.73,2000.58,2000.63,2000.67,1997.52,1996.43,2003.18,1999.64,2001.96,2000.64,2000.43,2000.42,2000.51,2001.33,2000.86,2000.55,2000.67,2001.02,2002.1,2001.65,2001.21,2000.91,2000.75,2000.8,1999.44,1999.2,2000.86,1999.77,2000.8,2000.71,2000.81,2001.11,1999.52,2001.09,2002.34,1999.02,2001.49,2001.3,2001.34,2001.34,2001.12,2001.12,2001.45,2002.51,2000.93,2000.73,2000.67,2000.66,2000.65,2000.65,2000.87,2000.91,2002.04,2001.42,2000.71,2000.7,2000.72,2001.12,2000.9,2001.17,2000.24,2001.53,1999.61,2000.93,2000.8,1999.99,2001.25,2000.81,2000.83,2000.86,2000.99,2001.65,1999.37,1994.31,1998.96,2001.71,2001.19,1999.09,2000.04,2001.34,2001.11,2001.19,2000.88,2001.28,2001.57,2001.98,2002.94,2008.27,2010.1,2005.86,2003.58,2006.6,2009.27,2005.55,2003.21,2003.58,1999.92,2001.89,2002.62,2001.61,2001.29,2001.34,2001.63,2000.68,2001.29,2001.14,2001.13,2001.1,2001.1,2001.16,2001.71,2003.34,2001.36,2004.48,2002.29,2003.13,2002.16,1990.88,1987.64,1995.92,2000.38,2006.02,2002.52,2001.62,2002.65,2001.85,2001.03,2000.96,2000.95,2001.66,2001.7,2000.88,2000.91,2001.34,1999.26,2001.8,2000.85,2000.78,2000.78,2000.82,2000.76,2000.75,2000.82,1998.48,2000.93,2000.75,2000.75,2000.77,2000.81,2000.97,2000.43,2001.19,2001.49,2001.85,2002.1,2001.96,2001.51,2001.11,2000.9,2000.76,2000.68,2000.63,2000.6,2000.61,2000.65,2002.02,2000.55,2000.55,2000.52,2000.55,2000.9,1998.12,1997.78,2001.16,2000.84,2000.74,2000.96,2001.16,2001.09,2000.62,2000.65,2000.61,2000.95,2000.74,2000.69,2000.83,2000.85,2000.94,2001.87,2001.64,2003.46,2001.16,1998.32,2001.05,2000.85,2000.96,2000.98,1999.46,2001.42,2001.69,2002.45,2004.12,2006.18,2008.04,2006.16,2015.9,2014.34,2015.27,2010.46,2007.13,2005.82,2008.22,2000.79,1991.71,1988.54,1990.58,1998.28,2007.24,2002.63,1999.61,2001.85,2000.77,2001.94,1999.45,2000.74,2000.75,1998.66,2001.01,2003.26,2002.28,2003.46,2006.52,2010.63,1995.1,2009.87,2005.6,2003.11,2001.7,2001.31,2000.83,2000.56,2000.48,2001.33,1997.71,2000.9,2000.31,2000.27,2000.26,2000.36,2000.5,2000.55,2000.51,2000.64,2000.45,2000.78,1999.08,2000.22,2000.34,2000.63,2000.64,2000.95,2001.03,2000.55,2000.25,2000.17,2000.23,2000.69,2000.26,2000.42,2000.34,2000.8,1997.53,2003.06,2000.74,2000.17,2000.14,2000.13,2000.14,2000.23,2001.81,1998.02,2001.08,2000.24,2001.08,1998.55,1999.09,1997.31,2000.9,1998.62
2004.71,2007.08,2005.53,2002.47,2001.36,2001.04,2000.95,2000.9,2001.52,2000.89,2000.81,2000.79,2000.79,2000.81,2001.02,2001.46,2001.5,2002.05,2002.63,1991.92,1994.7,2001.84,2001.18,2000.91,2000.97,2001.66,2001.14,2001.31,2001.27,2000.19,2000.98,2000.75,2000.6,2000.6,2002,2000.78,2000.51,2000.5,2000.51,2000.55,2000.59,2000.53,2000.5,2000.74,1999.52,2001.98,2001.68,2000.82,2000.63,2000.7,2000.75,1999.71,2001.74,2000.92,2001.22,2001.94,2003.7,2010.14,1999.05,1989.93,1986.12,1986.53,1991.25,2001.03,2007.95,1999.32,2001.63,2001.03,2000.76,2000.71,2000.6,2000.5,2000.61,2001.11,2000.41,2000.38,2000.38,2000.4,2000.45,2000.42,2000.4,2000.48,2000.79,2001.8,1998.66,1992.48,1993.92,2003.65,2001.15,2000.58,2000.63,2000.85,2003.03,2002.09,2001.99,2000.92,2001.08,1998.17,2000.9,2000.43,2000.45,1995.6,2000.72,2000.62,2000.62,2000.89,2001.99,2002.83,2000.78,2003.36,2001.36,2001.41,1998.85,2000.79,2000.86,2000.59,2000.64,2000.73,2000.9,2001.12,2001.36,2000.96,2000.87,2001.01,2001.77,2000.91,2001.05,2001.25,2001.44,2001.55,2001.29,2001.26,2000.92,2000.72,2000.67,2000.65,2000.75,2000.83,2000.66,2001.45,2001.51,2001.15,2000.98,2000.69,2000.7,2000.7,2000.74,2000.88,2000.92,2002.67,2002.05,2000.9,2000.79,2001.01,2000.9,2000.84,2000.79,2000.78,2000.81,2000.91,2001.32,2002.53,2002.86,2002.58,2001.27,2001.11,2001.93,2001.17,2001.09,2001.11,2001.15,2001.38,2001.46,2001.65,2002.29,2003.93,2009.3,2001.61,1994.58,1992.57,1995.5,2003.16,2008.46,2004.73,2004.82,1995.56,1997.31,2002.6,2001.52,2001.2,2001.14,2001.63,2001.18,2001.25,2001.35,2001.35,2001.22,2001.11,2001.09,2001.16,2001.38,2001.66,2001.66,2001.72,2000.74,2003.91,2008.24,1996.56,2006.43,2006.54,2003.34,2002.17,2001.52,2001.46,2001.34,2000.97,2000.91,2001,2002.67,2001.26,2000.87,2000.97,2002.9,2004.86,2000.96,2000.8,2000.78,1999.94,2000.81,2000.73,2000.72,2000.76,2000.86,2000.78,2000.74,2000.75,2000.78,2000.83,2001.06,2001.39,2001.53,2002.52,2004.84,2007.15,2005.11,2002.7,2001.91,2001.23,2000.86,2000.72,2000.65,2000.65,2001.23,2001.53,2001.1,2000.4,2000.54,2000.58,2000.55,2000.82,1999.94,1999.58,2000.96,2000.84,2000.72,2000.62,2000.65,2000.63,2000.6,2000.57,2001.92,2000.97,2000.78,2000.8,2000.34,2001.07,2001.29,2001.94,2001.65,2001.52,2001.35,2002.43,2001.74,2002.08,2003.13,2001.25,2001.16,2001.23,2001.36,2001.97,2004.29,2003.38,2004.21,2005.4,2006.45,2007.48,2005.38,2005.43,2004.33,2004.88,2005.86,2005.9,1996.34,1993.09,1995.32,2003.62,2002.83,2002.06,2001.3,2001.84,2000.63,2000.61,2000.7,2000.59,2000.68,2000.91,2001.56,2003.05,2002.79,2006.96,2004.01,1996.81,1994.9,1997.95,2006.7,2005.69,2002.5,2001.4,2001.1,2000.65,2000.55,2001.35,1997.93,2000.91,2000.44,2000.3,2000.3,2000.56,2002.05,2001.88,2001.22,2000.51,2000.32,2000.25,2000.2,2000.19,2000.26,1995.59,2002.4,2002.11,1996.57,2002.93,2000.34,2000.18,2000.3,2000.83,2000.15,2000.17,2000.19,1999.68,2000.54,2000.5,2000.49,2000.19,2000.16,2000.14,2000.16,2000.52,2000.68,2001.65,2000.41,2000.23,2000.89,1999.41,2000.72,2000.69,2000.36,2000.51
1994.89,2004.07,2005.5,2002.29,2001.43,2001.09,2000.97,2000.9,2001.81,2000.88,2000.83,2000.95,2001.03,2000.88,2001.32,2000.28,2000.95,2002.97,2002.17,1999.11,2001.05,2002.32,2001.44,2001.22,2001.34,2002.28,2001.9,1999.84,2001.82,2001.58,1998.64,2001.39,2000.69,2000.61,2000.59,2000.55,2000.53,2000.56,2000.52,2000.51,2000.5,2000.47,2000.47,2000.61,2000.16,2002.8,2000.62,2000.51,2000.55,1996.05,2001.32,1999.08,2004.32,2000.88,2001.13,2001.83,2003.68,2011.1,1997.81,1988.98,1985.44,1985.64,1990.5,2002.02,2008.37,2003.16,2001.66,2000.62,2001.59,1998.87,2000.13,2000.91,2000.73,2000.63,2000.47,2000.39,2000.37,2000.38,2000.35,2000.35,2000.36,2000.42,2000.58,2001.11,2003.28,2000.18,2000.81,2002.25,2000.87,2000.51,2000.43,2000.5,2000.03,1999.04,2000.6,2000.46,2000.59,2002.74,2000.52,2000.62,2000.6,2000.84,1997.39,2001.36,2000.79,2001.19,2004.74,1994.46,1992.73,1998.64,2001.97,1999.16,2000.85,1999.33,2001.01,2000.58,2000.72,2001.17,2004.49,2000.22,1997.4,2001.28,2000.77,2000.81,2000.88,2001.14,2001.03,2001.86,2006.45,2000.4,2005.41,2001.44,2000.81,2000.68,2000.64,2000.64,2001.55,1999.45,2000.66,2000.66,2000.67,2000.66,2000.67,2000.76,1999.39,2000.77,2000.48,2001.2,2001.07,2000.86,2000.82,2001.03,2002.62,2000.83,2000.79,2000.54,2001.22,2000.77,2000.78,2000.85,2000.69,2001.73,2001.25,2001.14,2001.04,2001.25,2000.32,2001.01,2000.64,2002.6,2001.32,2001.59,2001.06,2001.75,2002.53,2004.98,2008.22,1995.5,1988.99,1987.22,1989.6,1996.8,2010.31,2004.84,2003.52,2001.84,2003.94,2002.21,2002.2,2001.15,2001.38,2001.39,2001.28,2002.59,2003,2003.26,2001.83,2001.22,2001.06,2001.04,2001.09,2001.15,2001.22,2001.36,2001.92,2002.12,2002.93,2002.56,2003.51,2002.79,2002.1,1998.37,2000.58,2003.18,1999.63,2000.95,2000.88,2000.2,1999.76,2001.57,2000.84,2001.1,2004.5,2004.51,2000.97,2000.82,2000.77,2001,2000.82,2000.72,2000.71,2000.82,2000.08,1999.44,2000.75,2000.77,2000.83,2000.87,2001.33,2001.35,2002.11,2005.76,1995.76,1991.98,1995.19,2006.77,1999.67,2003.82,2001.25,2000.8,2000.67,2000.79,1998.68,1997.55,2000.74,2000.56,2000.62,1999.74,2000.57,2000.59,2001.2,2001.45,2000.61,2001.44,2001.23,2000.54,2000.63,2000.52,2000.51,2000.53,2000.61,2001.08,2001.03,2001.49,2001.38,2001.6,2002.23,2002.95,2003.21,2002.75,2002.72,1999.01,2001.51,2001.5,2001.38,2002.67,2000.93,2000.95,2001.13,2001.91,1998.27,2002.51,2002.56,2004.29,2003.64,2000.49,2000.56,2003.73,2002.84,2004.16,2003.79,2004.79,2007.63,2003.9,2006.6,2006.02,2002.78,2001.53,2001.06,2000.71,2000.58,2000.05,2000.57,2000.59,1999.73,2001.2,2000.79,1998.85,2005.65,2009.12,1988.26,1989.56,1987.74,1990.53,1998.07,2002.04,2003.45,2001.65,2001.02,2000.81,2000.7,2000.38,2000.8,2000.42,2000.88,2000.73,2000.35,2001.03,1997.26,1994.88,2004.81,2004.8,2001.18,2001.24,2000.22,2000.19,2000.24,2001.17,1996.8,2002.46,1996.43,2002.75,2000.36,2000.19,2000.15,2000.14,2000.13,2000.14,2000.16,2000.2,2000.25,2000.38,2000.37,2000.3,2000.23,2000.19,1999.83,2000.45,2000.55,2000.22,2000.22,1998.67,2000.27,2000.25,2000.21,2000.2,2000.34,2001.14
1991.39,2000.09,2006.4,2002.44,2001.48,2001.11,2000.99,2000.89,2000.85,2000.83,2000.97,1998.23,1994.6,2001.45,2000.84,2000.8,2000.79,2000.85,2001.05,2001.73,2000.66,2001.58,2002.43,2002.44,2002.24,2003.72,2003.46,2004.34,2003.19,2002.22,2001.4,2001.3,2000.8,2001.46,2000.76,2000.6,2000.63,1999.3,2000.62,2000.58,2000.54,2000.5,2000.56,2000.55,2000.55,2000.53,2001.02,2002.07,2000.46,2000.65,1998.94,2000.88,2001.3,2000.8,2001.06,2001.67,2003.19,2008.14,2001.25,1992.38,1988.71,1988.93,1993.77,2003.92,2006.6,2002.75,1999.87,2001.09,2000.81,2000.7,2001.26,2001.72,1994.01,2002.19,2000.76,2000.44,2000.49,1999.1,2000.36,2000.33,2000.35,2001.39,2000.59,2000.66,2001.11,2002.04,2002.41,2001.99,2000.72,2000.48,2000.42,2000.44,2000.56,2000.57,2000.42,2000.38,2000.38,2000.4,2000.43,1998.93,2000.78,2000.9,2002.29,1998.58,2001.54,2001.28,2004.54,1994.3,1992.57,1998.47,2002.76,2000.48,2002.28,2000.65,2000.6,2000.63,2001.01,2002.33,1997.2,2003.38,2001.84,2000.88,2000.72,2001.56,2000.32,2000.79,2001.11,1998.62,1998.98,1993.91,1998.14,2001.94,2000.82,2000.66,2000.62,2000.62,2000.66,2000.68,2000.63,2000.68,2001.16,2000.69,2000.68,2000.89,2001.34,2000.76,1998.68,2000.78,2000.73,2001.23,2000.96,2001.28,2001.45,2000.8,2000.75,2001,2000.86,2000.75,2000.75,2000.77,2000.82,2000.86,2000.88,2000.91,1999.69,2001.52,2000.34,2000.99,2003.52,1996.79,2001.76,2001.62,2001.82,2001.72,2002.56,2005.19,2006.8,1994.47,1988.31,1986.13,1988.74,1995.64,2008.97,2004.88,2002.72,2002.13,2001.73,2001.36,2001.18,2001.24,2002.69,2001.47,2002.2,2003.25,1996.85,1995.76,2004.38,2001.43,2001.05,2000.98,2001,2001.1,2001.07,2001.15,2001.09,2001.59,2001.67,2002.05,2001.93,1998.87,1998.75,2001.41,2001.63,2001.15,2001.18,2000.94,2000.84,2000.85,2000.85,2000.81,2000.79,2001.06,1998.4,2001.07,2001.48,2002.21,2000.93,1999.29,2000.32,2000.71,2000.7,2000.75,2000.9,2000.81,2000.76,2000.79,1999.12,2000.93,2001.07,2001.45,2002.71,2001.47,1990.3,1986.84,1989.78,2000.22,2004.02,2002.22,2002.5,2000.83,2000.71,2000.75,2000.75,2000.71,2000.57,2000.51,2001.16,2000.55,2000.5,2000.63,2001.06,2000.58,2000.53,2000.54,2000.51,2000.5,2000.99,2000.47,2000.47,2000.51,2000.71,1999.71,1999.81,2003.09,1999.53,2002.83,2005.22,2009.86,2008.8,2008.31,2004.23,2002.33,2001.5,2001.58,2001.49,2001.99,2000.84,2000.93,2001.38,2001.17,2001.48,2001.52,2001.7,2002.04,2002.2,2003.11,2002.66,2002.23,2001.93,2001.95,2002.3,2002.96,2004.23,2004.26,2003.8,2003.55,2001.65,2001.16,2001.33,2000.62,2000.53,2000.51,2000.52,2000.6,2000.76,2001.35,2001.06,2004.27,2006.87,2005.81,1993.49,1987.08,1985.36,1993.62,1995.51,2008.99,2003.79,2001.8,2001.26,2001.23,1999.34,2001.42,2000.81,2000.39,2000.44,2000.48,2000.47,2000.71,2001.51,2003.9,1997.82,2005.76,1999.63,2000.6,2000.29,2000.64,2000.21,2000.34,2000.67,2000.86,2001.7,2000.96,2000.42,2000.49,2000.17,2000.14,2000.14,2000.15,2000.19,2000.22,2000.34,2000.67,2001.12,2000.91,2000.47,2000.28,2000.23,2000.51,2001.82,2000.16,2000.15,2000.23,2000.16,2000.14,2000.16,2000.16,2000.18,2000.27
1993.36,2002.56,2005.35,2002.31,2001.45,2001.11,2000.95,2000.91,2000.85,2000.83,2001.07,1999.82,1996.58,2001.96,2000.84,2000.77,2000.8,2000.83,1998.7,2001.05,2001.69,2001.14,2001.39,2002.24,2004.17,2009.87,2003.11,2003.04,1996.81,2003.99,2002.03,2001.23,2000.91,2001.35,2000.92,2000.7,2000.79,2002.36,2000.91,2000.81,2000.7,2000.59,2000.62,2000.57,2000.52,2000.45,2000.48,2000.47,2000.42,2000.44,2000.52,2000.53,2000.6,2000.73,2000.99,2001.46,2002.61,2004.94,2010.58,2000.7,1996.52,1996.88,2002.17,2011.97,2003.78,2002.16,2001.28,2000.92,2001.14,2000.6,2000.82,2004.72,1998.28,1996.64,2001.41,2000.52,2000.52,2000.42,1998.82,2000.33,2000.66,2000.83,2000.55,2000.47,2000.67,2002.33,1995.44,1999.94,2000.72,2000.78,2000.64,2000.99,2000.65,2000.39,2000.48,2000.37,2000.36,2000.36,2000.39,2000.54,1998.42,1999.44,2000.55,1999.83,1998.67,2001.13,2002.97,2002.23,2000.21,2003.51,2001.41,2001.05,2000.7,2000.61,2001.06,2001.43,1999.73,1999.08,1994.08,1999.31,2001.24,2000.74,2000.73,2000.21,2001.85,2000.72,2000.82,2001.4,2002.28,1996.81,2001.38,2001.39,2000.76,2000.65,2000.66,2000.63,2000.62,2000.62,2000.62,2000.69,2002.26,2000.78,2000.78,1999.92,2000.71,2000.76,2000.81,2000.76,2000.83,2001.06,2001.21,1999.39,2001.27,2000.87,2000.84,2000.74,2000.78,2000.75,2000.73,2000.74,2000.76,2000.79,2000.94,2000.85,2001.53,2001.44,2000.95,2001,2001.3,2001.89,2001.19,2001.13,2001.28,2001.6,2002.34,2004.38,2006.07,1990.07,1991.58,1990.07,1991.96,1999.34,2011.29,2000.46,2002.45,2001.7,2001.47,2001.22,2001.57,2001.57,2001.15,2003.03,1996.85,2004.52,1995.45,1994.36,2002.68,2001.46,2001.03,2000.94,2000.96,1999.49,2000.99,2001.01,2001.32,2001.19,2001.2,2001.36,2001.34,2001.55,2001.26,2001.17,2001.15,2001.05,2001.14,2001.07,2000.81,2000.77,2000.75,2000.74,2000.74,2000.8,2001,2000.92,2000.78,2000.6,2000.09,2000.82,2000.76,2000.7,2000.7,2000.74,2000.91,1999.28,2000.79,2000.8,2000.87,2000.97,2001.16,2002.51,2003.03,2003.19,1991.68,1988.15,1991.15,2001.88,2003.01,2001.68,2001.06,2000.99,2000.8,1998.62,2001.23,2000.6,2000.89,2000.54,2000.49,2000.49,2000.49,2000.83,1999.4,2000.6,2000.87,2000.95,2000.53,2000.46,2000.45,2000.45,2000.46,2000.5,2000.64,2001.74,2002.06,2001.71,2002.55,2005.12,2004.23,1996.65,1995.13,1999.42,2009.29,2003.63,2001.98,1998.66,1998.36,2001.05,2000.75,2000.84,2001.37,2000.91,2000.98,2001.09,2001.23,2001.4,2001.48,2001.61,2001.68,2001.57,2001.38,2001.37,2001.48,2001.69,2002.12,2002.03,2002.13,2002.34,2001.12,2000.84,2000.66,2000.55,2000.53,2000.57,2000.78,2001.05,2001.39,2001.68,2002.33,2003.84,2005.13,2008.47,1995.64,1989.08,1987.32,1990.05,1997.59,2010.58,2003.45,2001.96,2001.61,2003.23,2000.58,2002.62,2001.29,2000.62,2000.33,2000.08,2001.54,2000.4,2000.76,2002.2,2004.88,2002.01,2002.03,2000.3,2000.21,2000.22,2000.21,2000.26,2000.38,2001.84,1995.77,2000.31,2000.72,1999.02,2000.2,2000.18,2000.16,2000.31,2001.06,2000.41,2000.64,2002.69,1998.03,2000.51,2001.3,1999.98,2000.46,2000.85,2001.52,2000.16,2000.65,2000.38,2000.13,2000.16,2000.71,2000.33,2000.53,1999.19
2001.45,2000.35,2003.84,2001.98,2001.37,2001.09,2000.95,2000.91,2000.86,2000.83,2000.89,2001.27,2001.72,2001.07,1999.34,2000.96,1999.44,2000.98,2000.85,2000.85,2000.94,2001.11,2001.57,2003.06,2009.97,1998.77,1993.01,1992.92,1998.5,2008.61,2000.85,2001.52,2001.22,2001.14,2000.67,2000.98,2001.13,2002.5,2001.88,2001.61,2001.13,2000.79,2000.63,2000.77,1999.9,2000.57,2000.44,2000.43,2000.43,2000.49,2000.53,2000.5,2000.56,2000.79,1999.74,2001.41,2003.61,2003.15,2005.13,2009.06,2008.4,2011.14,2005.84,2005.38,2002.82,2001.6,2001.05,2000.78,2000.68,2000.56,2001.35,2002.29,1997.2,1998.48,2001.2,2000.63,1997.85,2000.4,2000.34,2000.32,2000.56,2000.9,2000.39,2000.39,2000.6,2001.08,2002.68,2001.38,2000.61,1999.78,2001.5,1998.46,2002.04,2000.6,2000.76,2000.81,2000.36,2000.36,2000.41,1998.64,2000.5,2000.68,2000.9,2001.8,2001.7,2000.79,2000.97,2001.41,2001.56,2001.16,2000.8,2000.66,2001.01,2000.93,2001.1,2001.16,2001.1,2002.37,2001.65,2002.34,2000.96,2000.71,2000.71,2002.4,2001.21,2000.66,2000.73,2001.12,2001.47,1999.46,1999.61,2000.92,2000.7,2000.89,1998.71,2000.87,2001.5,2000.66,2000.65,2000.7,2001.46,1999.08,1999.59,2000.76,2000.71,2001.77,2000.16,2001.14,1999.47,2001.16,1999.8,2000.18,2002.14,2000.89,2001.24,2000.78,2001.27,2001.32,2000.75,2000.73,2000.73,2000.76,2001.49,2000.89,2000.21,2000.9,2000.83,2001.06,2001.16,2001.01,2000.98,2001.04,2001.2,2001.47,2002.04,2003.73,2006.54,2007.25,1999.67,1997.53,2000.31,2008.64,2006.01,2003.78,2003.15,2001.54,1999.84,2001.15,2001.1,2000.97,2001.02,2001.62,2003.74,2002.33,2003.53,2002.25,2002.29,2001.52,2001.03,2000.91,2000.94,2002.29,2000.93,2000.91,2000.94,2000.96,2000.99,2001.18,2001.1,2001.21,2001.42,2000.96,2001.03,1998.74,2000.8,2001.21,2000.81,2000.75,2000.73,2000.71,2000.7,2000.71,2000.76,2000.75,2000.7,2000.71,2000.94,2001.08,2001.12,2000.88,2001.33,2000.71,2000.77,2001.15,2000.95,2000.85,2000.94,2001.18,2001.28,2002.06,2001.35,2006.63,2000.49,1996.38,1999.87,2005.03,2003.23,2001.85,2001.08,2001,2000.76,2001.7,2000.51,2000.59,2000.58,2000.52,2000.52,2000.52,2000.52,2000.56,2000.61,2000.69,1999.36,1998,2000.67,2000.6,2000.46,2000.44,2000.45,2000.48,2000.56,2000.69,2000.93,2001.42,2002.78,2009.01,1997.03,1990.13,1988.59,1992.16,2001.65,2003.15,2002.42,2002.47,2002.35,2001.17,2000.69,2000.67,2000.7,2000.74,2000.83,2000.87,2001.07,2002.58,2002.22,2001.85,1999.75,2002.14,2001.03,2001.04,2000.7,2001.18,2000.4,2000.33,2002.26,2001.31,2001.71,2000.82,2000.59,2000.53,2000.82,1994.65,2001.38,2001.42,1996.75,2001.4,2001.36,2001.79,2003.23,2007.37,2002.96,1995.86,1993.96,2006,2004.85,2005.99,2002.65,2001.71,2002.93,1995.66,1993.46,2001.05,2001.95,2000.46,2000.31,2000.35,2000.32,2000.28,2000.33,2000.44,2000.48,2000.46,2000.76,2000.22,2000.18,2000.2,2001.14,2001.54,2000.67,2001.63,1997.09,2001.85,2000.41,2000.22,2000.31,1998.84,2000.21,2000.69,2000.61,2001.92,2000.98,2000.7,2001.71,1996.37,2002.25,2000.77,2000.32,2000.37,2000.32,2000.14,2000.17,2000.16,2000.13,2000.17,1999.44,2000.7,2000.47,2000.48
2006.64,2004.16,2002.49,2001.67,2001.27,2001.06,2000.94,2000.89,2000.94,2000.85,2000.83,2000.87,2001.42,2001.47,2000.88,2000.93,2001.63,2000.43,2000.98,2000.86,2000.94,2001.15,2001.83,2001.36,2006.88,1994.62,1989.18,1989.07,1994.3,2006.25,2003.6,2001.66,2001.1,2000.99,2001.71,2001.21,2001.94,2004.76,2004.79,2006.56,2002.43,2001.16,2000.93,2001.17,1999.15,2000.6,2000.45,2000.43,2000.44,2001.83,2000.5,2000.49,2000.53,2000.69,2001.62,2000.77,1999.67,2003.49,2002.8,2002.88,2004.33,2004.19,2003.54,2002.61,2002.58,2001.32,2000.86,2000.66,2000.55,2000.5,2000.54,2000.81,2001.43,2001.42,2000.71,2000.57,2000.45,2000.35,2000.42,2000.37,2000.32,2000.32,2000.32,2000.35,2000.69,2000.85,2000.62,2000.72,2000.74,2000.61,2000.63,1998.33,1999.41,2000.47,2000.58,2000.62,2000.36,2000.36,2000.47,1997.73,2000.5,2000.45,2000.53,2000.64,2000.64,2000.71,2000.71,2000.7,2000.73,2000.68,2000.62,2000.61,2001.59,1997.55,2000.84,2000.59,2000.68,2001.15,2001.95,2001.45,2000.94,2000.82,2000.74,2000.97,2002.02,2000.6,2000.66,2000.95,2000.77,2000.86,2000.81,2000.67,2000.7,1999.39,2000.85,2000.05,2002.46,2000.74,1998.72,1998.57,2000.72,2000.72,2000.79,2000.7,2000.71,2000.97,2001.46,2000.93,2000.84,2001.31,1997.41,2002.18,2000.98,2000.81,2001.09,2000.79,2000.9,2001.47,2000.82,2000.77,2000.71,2000.73,2000.82,2001.68,2001.23,2000.81,2000.36,2002.47,2001.52,2001.04,2000.92,2001.03,2001.85,2001.82,2001.83,2003.35,2003.72,2005.88,2009.27,2011.94,2009.32,2005.49,2003.36,2002.31,2001.77,2001.45,2002.39,2001.27,2000.96,2000.91,2000.92,2001.06,2001.47,2001.23,2001.43,2001.46,2001.26,1998.62,2001.15,2000.16,2000.91,2001.52,2000.91,2000.85,2000.85,2000.86,2000.87,2000.9,2001.29,2001.85,2000.9,2000.85,2000.98,2002.28,1997.95,1999.32,2000.84,2000.85,2000.79,2000.69,2000.68,2000.68,2002.23,2001.07,2000.69,2000.7,2000.71,2000.95,2001.93,2001.07,2000.89,2000.71,2000.88,1997.86,2003.28,2000.92,2001.08,1998.54,2001.62,2001.96,2002.16,2003.05,2004.09,2004.77,2004,2003.11,1998.02,2001.32,2001.15,2000.87,2000.74,2000.69,2000.64,2000.56,2000.58,2000.76,1998.91,2000.12,2000.7,2000.69,2000.91,2000.94,2001.21,2001.22,2000.69,1998.25,2000.51,2000.5,2000.55,2000.5,2000.55,2000.66,2000.87,2001.39,2003.03,2009.82,1995.7,1988.91,1987.41,1994.32,2005.06,2005.97,2002.21,2001.28,2001,2000.91,2000.64,2000.63,2000.65,2000.69,1999.02,2000.85,2000.76,2001.1,2001.08,2000.98,2001.03,2000.84,2000.81,2000.81,2000.98,2000.86,2000.94,2002.35,2000.97,1999.57,1996.6,2001.29,2002.53,2000.54,2003.52,1996.32,2000.33,2002.46,1996.44,2001.07,2001.13,2001.28,2002.04,2003.66,2007.21,2008.76,2006.5,2010.04,2006.41,2003.22,2002.38,2001.64,2002.21,1997.71,1995.48,2002.96,2000.88,2000.41,2000.32,2000.26,2000.24,2000.24,2000.26,2000.67,2000.67,2000.35,2000.51,2000.21,2000.23,2000.42,2000.85,2001.12,1998.52,2001.84,2000.89,2000.48,2000.24,2000.16,2000.18,2000.31,2000.24,2001.01,2001.63,2000.46,2000.99,2003.28,1998.16,2000.97,2001.45,2000.41,2000.22,2000.16,2000.14,2000.13,2000.12,2000.12,2000.12,2000.14,2000.22,2001.95,1999.92,2000.85
2002.81,2002.39,2002.69,2002.21,2001.38,2001.06,2000.95,2001.07,1998.24,2000.97,2000.85,2000.86,2002.53,2001.98,2000.87,2000.86,2001.1,1999.92,2001.1,2000.92,2000.98,2001.17,2002.16,2003.79,2008.78,2004.62,1990.99,1990.6,1995.83,2008.09,2003.35,2001.67,2001.11,2000.96,2000.78,2001.43,1996.12,1999.08,1993.87,1996.34,2006.77,2002.1,2001.75,2000.83,2000.64,2002,2000.51,1998.54,2000.47,2000.48,2000.5,2000.47,2000.5,2000.58,2000.81,2002.38,1996.34,1999.74,2001.87,2001.9,2002.06,2002.05,2001.84,2001.85,1997.78,2001.4,2000.74,2000.58,2000.5,2000.45,2000.45,2000.48,2000.59,2002.41,2000.72,1997.65,2000.55,2000.38,1998.45,2001.28,2000.32,2000.37,2000.33,2000.37,2000.57,2001.03,2000.8,2004.42,1999.81,2001.35,2000.57,2000.69,2000.62,2000.41,2000.35,2000.35,2000.35,2000.36,2000.39,2000.51,2000.47,2000.46,2000.66,2001.86,2001.2,2000.67,2000.59,2000.54,2000.58,2000.71,2000.83,2002.18,2000.85,2000.71,2000.59,2000.58,2000.76,2001.73,1996.18,2002.08,2001.71,2001.6,2001.11,2000.83,2000.71,2000.59,2000.62,2000.83,2000.71,2000.62,2000.6,2000.58,2000.68,2000.12,2000.91,2000.93,2000.75,2000.69,2000.83,2001.04,2001,2000.71,2000.72,2000.71,2000.71,2000.76,2001.33,2001.15,2000.92,2001.23,2001.55,2001.2,2001.07,2000.92,1998.15,2000.87,2000.76,2000.75,2000.89,2000.73,2000.71,2000.73,2000.84,1999.19,2001.9,2000.79,2000.85,2000.97,2000.96,1999.67,2000.93,2001.03,1999.54,1997.31,1998.98,2001.9,1999.72,2003.29,2003.63,2003.94,2003.53,2002.79,2002.2,2001,2002.74,2001.55,2000.66,2001.73,2000.92,2000.87,2000.87,2000.96,2001.27,2001.03,2001.06,2001.04,2000.97,2000.94,2000.87,2000.89,2000.84,2001.72,2001.02,2000.81,2000.8,2000.81,2000.8,2000.82,2002.35,2001.28,2000.81,2000.83,2001.77,2002.64,2001.35,2001.04,2000.86,2001.65,2001.3,2000.68,2000.66,2000.65,2000.66,2000.67,2000.74,2001.43,2001.02,2000.7,2000.68,2000.77,2000.77,2000.98,2000.85,2001.36,2001.12,2000.99,2001.93,2001.53,2001.73,2002.26,2003.33,2003.39,2003.78,2003.74,2003.24,2002.66,2002.76,2001.85,2001.17,2000.91,2000.77,2000.68,2000.61,2000.56,2000.75,1999.02,2000.77,2000.71,2000.72,2001.26,2000.63,2003.1,2001.6,2000.82,2000.57,2000.53,2001.11,2000.75,2000.34,2000.54,2000.73,2000.93,2000.82,2001.31,2000.93,2006.91,1999.91,1992.75,1991.15,1994.86,2004.5,2004.45,2001.91,2001.23,2000.86,2000.67,2000.63,2000.71,2000.88,2000.82,2000.71,2000.65,2000.63,2000.66,2000.66,2000.67,2000.67,2000.68,2000.68,2000.68,2000.67,2000.8,2000.25,2001.93,2000.7,2000.87,2001.33,1999.03,2001.16,2000.47,2000.65,2001.23,2000.68,2000.8,2001.36,2001.06,2000.83,2001.08,2001.69,2002.1,2002.83,2004.01,2004.35,2003.76,2002.7,2001.82,2001.52,2001.4,2001.12,2001.93,2002.32,2001.18,2000.55,2000.37,1998.63,2000.36,2000.32,2001.94,2000.27,1998.42,1998.01,2000.31,2000.32,2000.57,1998.22,2000.34,2000.38,2000.37,2001.69,1997.37,2000.54,2000.22,2000.17,2000.15,2000.14,2000.17,2000.41,1998.47,2001.21,2000.77,2000.66,2005.2,1999.74,2002.31,2000.66,2000.3,2000.19,2000.16,2000.15,2000.13,2000.12,2000.12,2000.12,2000.13,2000.17,2000.42,2000.74,2000.61
2001.77,2001.62,2001.97,1998.6,2000.89,2001.1,2000.99,2001.2,2001.23,2001.01,2001.45,2000.96,2000.91,2001.01,2001.13,2001.09,2001.17,1998.81,2001.51,2001.19,2001.08,2001.18,2001.59,2002.66,2005.91,2004.03,1997.64,1997.51,2003.45,2006.41,2002.09,2001.89,2001.16,2001.1,2001.02,2001.57,2005.35,1996.23,1991.34,1993.68,2004.35,2002.52,2002.47,2000.74,2000.7,2002.04,2000.58,2000.56,1999.53,2000.48,2000.45,2000.47,2000.49,2000.53,2000.65,2001.06,2002.4,2001.74,2001.23,2001.29,2001.42,2001.47,2001.39,2001.33,2001.22,2000.85,2000.67,2000.36,2000.48,2000.44,2000.44,2000.43,2000.67,2001.22,2000.87,2000.49,2000.36,2000.35,2000.59,2000.43,2000.32,2000.29,2000.72,2000.56,1997.8,2000.35,2000.95,1998.55,1994.68,2003.09,2000.75,2000.39,2000.38,1998.49,2000.36,2000.37,2000.07,2000.45,2000.42,2000.66,1999.99,2000.84,2001.26,1996.51,1999.54,2000.65,2000.51,2000.51,2000.61,1999.38,2001.05,2000.19,2000.96,2000.63,2001.1,2001,1998.71,2002.79,2003.39,2003.18,2000.37,2000.14,2002.74,2001.41,2001.08,2000.6,2000.75,2002.08,2000.07,2000.59,2000.55,2000.55,2000.57,2000.62,2000.78,2000.77,2000.76,2000.79,2000.77,2001.8,2001.84,2000.81,1999.9,2000.91,2000.76,2000.8,2001.65,2001.45,2001.25,2002.13,2001.32,2000.47,2001.16,2001.22,2000.86,2000.79,1998.61,2000.72,2000.69,2000.69,2000.72,2000.95,2000.87,2000.97,2000.86,2000.78,2000.76,2000.76,2000.79,2000.84,1999.77,2001.09,2001.01,2001.2,2001.56,2001.39,1999.87,2002.28,2003.2,2002.64,2002.04,2001.76,2001.8,1998.85,2001.4,2001.14,2001.51,2001,2000.85,2000.82,2000.83,2000.94,1999.27,2001.26,2001.36,2001.2,2000.99,2000.91,2000.83,2000.78,2000.82,1999.01,2001.04,2000.8,2000.82,1999.83,2000.83,2000.79,2000.88,2000.77,2000.76,2000.83,2001.53,2003.03,2002.05,2001.45,1999.89,2000.78,2000.7,2000.66,2000.64,2000.63,2000.63,2000.64,2000.85,2001.49,2000.55,2000.72,2000.65,2000.65,2000.74,2002.13,2001.74,2000.05,2001.02,2001.05,2001.49,2002.89,2002.32,2003.23,2004.57,2006.09,2006.93,2006.43,2004.93,2003.45,2002.41,2001.72,2001.26,2001,2000.91,2000.81,2000.65,2000.57,2000.54,2000.57,2000.36,2000.41,2000.95,2002.85,1996.45,1994.96,2002.36,2001.16,2000.63,2000.52,2002.04,2001.38,2001.49,2000.86,2000.54,2000.61,2000.75,2001.09,2001.81,2003.59,2009.22,2002.49,2000.65,2004.75,2007.16,2002.72,2001.6,1999.98,2001.36,2000.65,2000.73,2001.44,1999.54,2003.21,2000.89,1998.27,2000.63,1999.54,2000.61,2000.59,2000.59,2000.64,2001.2,2000.88,2000.62,2000.73,1999.05,2002.78,2000.81,2000.49,2000.48,2000.57,2000.42,2000.38,2000.38,2000.41,2000.43,2000.55,2001.77,2002.06,2000.73,2001.17,2002.05,1999.11,2002.17,2001.9,2001.94,2001.93,2001.49,2001.12,2001.05,2000.89,2000.67,2000.71,2001.8,2000.54,2000.39,2000.32,2000.33,2000.27,2000.33,2000.97,2000.24,2000.3,2000.4,2000.24,2000.2,2000.6,2000.34,2000.2,2000.23,1999.92,2000.05,2000.4,2000.24,2000.17,2000.15,2000.14,2000.14,2000.2,1998.46,2000.14,2000.8,2000.26,2000.4,2000.94,2000.82,2000.56,2000.36,2000.26,2000.25,2000.24,2001.97,2000.16,2000.13,2000.13,2000.13,2000.13,2000.15,2000.33,2001.54,2000.22
2001.43,2001.34,2001.36,2003.62,2001.86,2001.05,2000.78,2001.37,2001.27,2000.02,1999.01,1999.91,2001.08,2001.78,2001.75,2002.97,2002.02,2003.49,2001.59,2003.08,2001.56,2001.25,2001.48,2002.15,2003.67,2006.68,2010.2,2010.06,2006.37,2004.37,1998.78,2002.99,2001.37,1998.11,2001.05,2002.9,2003.21,2001.26,1995.97,1998.53,2005.04,2001.58,1998.68,2000.93,2001.55,2001.81,2000.9,2000.76,2001.17,2000.53,2000.56,2000.66,2000.53,2000.5,2000.56,2000.92,2000.18,2000.88,2001.23,2001.49,2001.79,2002.22,2001.8,2002.6,2001.61,2001.12,2000.69,2000.57,2000.45,2000.47,2001.14,2000.57,2000.65,1999.12,2000.54,2000.42,2000.33,2000.51,2000.64,2000.32,2000.29,2000.33,2000.33,2000.33,2000.41,2000.4,2000.56,2001.76,2001.7,2001.1,2000.46,2000.39,2000.39,2000.62,2000.4,2000.44,2000.02,2000.64,2000.43,2000.53,2000.57,2002.29,2001.36,2001.7,2000.1,2000.65,2000.55,2000.56,2000.68,2001.75,2001.64,2002.32,2000.93,2000.94,1996.97,1999.42,2001.06,2000.92,2001.43,2002.14,1993.51,1993.27,2001.31,2001.43,2000.75,2000.61,2000.79,2001.86,2000.89,2000.57,2000.54,2000.54,2000.55,2000.58,2000.65,2000.91,2001.87,2002,2001.11,2000.85,2000.84,1999.16,1998.12,2000.99,2000.82,2000.84,2001.35,2001.05,2001.1,1999.18,2001.45,2001.19,2001.84,2001.07,2000.8,2000.78,2000.85,2000.73,2000.7,2000.69,2000.73,2002.2,2002.77,2003.1,2000.98,1999.6,2000.92,2000.76,2000.81,2000.84,2000.84,2000.83,2000.86,2000.92,2000.99,2001.09,2001.24,2001.38,2003.31,2001.98,2001.43,2001.28,2001.24,2001.25,2001.01,2000.93,2000.11,2000.92,2000.8,2000.79,2000.82,2000.94,2001.42,2003.13,2003.9,2003.16,2001.35,1996.36,2001.09,2000.79,2000.75,2000.84,1999.52,2000.98,2000.82,2001.2,2000.97,2000.93,1999.03,2000.75,2000.74,2000.83,2001.47,2001.48,1996.55,2002.25,2001.26,2000.83,2000.69,2000.84,2000.64,2000.61,2000.61,2000.62,2000.69,2001.21,2001,2000.76,2000.64,2000.64,2000.78,1996.06,1999.38,2001.21,2000.97,2001.13,2001.6,2000.94,2003.33,2003.27,2010.3,2008.68,2006.41,1999.49,2011.92,2005.93,2003.37,2002.11,2001.45,2001.13,1997.48,1998.82,2000.88,2000.59,2000.52,2000.51,2000.62,2000.73,2001.35,2005.02,1994.25,1992.84,1999.89,2001.31,1999.07,2000.68,2000.46,2000.72,2000.73,2000.08,2000.68,2000.58,2000.73,2002.77,2001.85,2001.96,2003.17,2004.77,2003.66,2004.35,2002.7,2001.63,2001.18,1999.76,2001.02,2000.63,2001.26,1998.46,1997.11,1999.37,2001.05,2000.64,1999.8,2000.77,2000.68,2000.93,2000.83,2001.06,2002.01,2001.32,2000.75,2000.63,2000.61,2000.55,2000.52,2000.41,2000.38,2000.38,2000.42,2000.35,2000.33,2000.34,2000.37,2000.61,2001.51,2001.33,2000.83,2000.57,1996.99,2001.59,2000.91,2001.99,2001.24,1998,2001.32,2000.87,2000.7,2000.55,2000.48,2000.6,2001.12,2000.4,2000.63,2000.72,2000.28,2000.4,1998.45,2000.25,2000.21,2000.21,2001.28,2000.32,2000.19,2000.19,2000.18,2000.18,2000.68,1999.41,2000.27,2000.25,2000.22,2000.17,2000.15,2000.14,2000.14,2000.15,2000.19,2000.23,2000.21,2000.23,2000.54,1997.64,2000.46,2000.35,2001.14,2001.22,1997.86,1999.35,2001.13,2000.17,2000.2,2000.8,2000.14,2000.14,2000.15,2000.13,2000.16,2000.19
2001.34,2001.23,2001.17,2001.16,2001.1,2001,2000.98,2001.03,1998.85,2000.31,2001.56,2001.33,2001.2,1999.75,1995.2,1998.17,2000.25,1998.42,1998.33,1999.84,2002.32,2000.54,2001.48,2002.09,1999.99,2009.64,2004.27,2005.74,2005.14,2002.31,2002.2,2001.69,2001.05,2001.02,2000.9,2001.08,2001.68,2003.23,2005.23,2003.94,2001.99,2001.98,2000.89,2001.49,1997.71,1996,2002.26,2001.23,2002.01,2000.6,2001.87,1998.3,2000.87,2000.49,2000.52,1999.6,2000.77,2000.69,2000.95,2001.86,2003.27,1998.95,2003.44,2001.73,2000.99,1999.64,2000.68,2000.51,2000.46,2000.5,2001.44,2000.78,2001.74,2000.97,2001.45,2001.44,2000.36,2000.38,2000.64,2000.6,2000.31,2000.28,2000.28,2000.28,2000.3,2000.32,2000.37,2000.49,2001.98,2000.82,2000.41,2001.64,2001.12,1999.94,2000.63,2001.44,1999.86,2000.43,2000.41,2000.44,2000.65,1999.61,2000.71,2000.67,2001.08,2000.7,2000.87,2001.63,1999.27,2000.62,2000.58,2000.56,2000.57,2000.86,2001.56,2001.88,2000.67,2000.71,2001.28,1994.9,1994.84,1994.5,2002.76,2001.39,2000.76,2000.63,2000.85,1998.71,2000.74,2000.59,2000.56,2000.54,2000.56,2000.6,2001.32,2001.4,1999.02,1996.44,2002.52,2002.01,2000.87,2000.93,2001.06,2000.93,2000.91,2000.98,2001.4,1999.86,2002.15,2000.51,2001.33,2000.96,1999.01,2000.9,2000.91,2001.28,1998.92,2000.96,2001.34,2000.73,2000.76,2001.03,1998.04,1998.3,2001.14,2001.09,2000.81,2000.87,2001.75,1999.74,2000.99,2000.79,2000.79,2000.83,2000.87,2000.93,2001.12,1999.37,2001.21,2001.41,2001.46,2001.03,2001.05,2001.22,2000.88,2000.87,2000.84,2000.8,2000.76,2000.76,2000.8,2001.02,2002.27,1997.37,2001.18,1998.52,2001.81,2001.62,1998.39,2000.97,2000.74,2000.85,2001.53,2001.82,2000.93,2001.2,1999.61,2001.85,2000.81,2000.71,2000.72,2000.91,2001.51,1998.71,1994.1,1999.43,2002.01,2000.57,2000.69,2000.89,2000.63,2000.6,2000.59,2000.59,2000.61,2000.66,2001.33,1999.43,2000.64,2000.63,2000.69,2000.96,2001.87,2001.24,2001.12,2001.22,2001.69,2002.61,2004.69,2010.84,2002.86,1996.34,1993.87,1996.02,2001.88,2012.32,2005.07,2002.69,2001.68,2001.27,2003.91,2000.06,2001.21,2000.61,2000.52,2000.49,2000.51,2000.61,2001.68,1999.18,2000.72,1999.1,2002.88,2000.94,2000.61,2000.48,2000.49,2000.47,2000.5,1999.77,2001.07,2000.88,1999.67,2002.16,2001.7,2001.25,2001.55,2001.94,2003.1,2003.54,2001.45,2001.06,2000.92,2000.7,2000.6,2000.58,2001.14,2000.75,2002.27,2001.43,2002.03,2000.67,2000.88,2000.83,2000.47,2000.96,2000.57,1999.14,1999.92,1998.92,2002.09,1999.68,2000.46,2000.41,2000.93,2000.68,2000.35,2000.41,1997.73,2000.43,2000.31,2000.32,2000.4,2000.8,2000.64,2000.84,2000.77,2001.2,2001.83,2000.87,2003.2,2001.57,2000.78,2000.89,2000.97,2000.84,2000.64,2000.44,2000.4,2000.62,2001.44,2000.34,2000.43,2000.44,2000.28,1999.91,2000.31,2000.24,2000.22,2000.21,2000.23,2000.22,2000.26,2000.19,2000.18,2000.18,2000.26,2000.34,2000.32,2001.46,2000.85,2000.25,2000.16,2000.15,2000.15,2000.15,2000.15,2000.16,2000.17,2000.64,1999.05,2000.75,2000.62,2000.48,2001.15,2000.66,2000.24,2000.34,2000.23,2000.22,2000.18,2000.27,2000.17,2000.16,2000.16,2000.14,2000.23,1999.51
2001.77,2001.35,2001.17,2002.58,2002.83,2001.09,2001.36,2002.89,2000.96,2001.47,2001.1,2000.91,2001.1,1999.58,1999.72,2003.11,2002.31,2001.31,1996.82,2002.85,2001.77,2001.44,2001.78,2002.44,2005.63,1999.29,1993.75,1994.98,2003.76,2004.33,2001.8,2001.2,2001.03,2001.09,2000.85,2001.12,2001.61,2002.02,2001.61,2001.55,2001.07,2000.96,2001.13,1995.7,1997.69,1995.99,1998.75,2000.72,2000.51,2000.55,1999.64,1997.25,2000.84,2000.46,2000.45,2000.49,2000.53,2000.62,2001.18,2000.48,1997.14,1993.31,1997.29,2002.55,2001,2002.04,2000.67,1997.99,2000.78,2000.53,2001,2001.78,1997.02,2000.93,2002.36,2001.2,2000.39,2001.45,1999.76,1999,2000.34,2000.28,2000.27,2000.27,2000.29,2000.3,2000.31,2000.34,2000.39,2000.45,2000.38,2002.54,2000.96,2000.73,2000.49,2000.42,2000.5,2000.43,2000.45,2000.5,2000.44,2001.05,1999.77,2000.79,2000.8,2001.19,2001.73,2000.02,2000.98,2000.78,2000.65,2000.56,2000.68,2001.12,2000.8,2000.61,2000.56,2000.65,2000.97,2002.05,2004.81,2004.52,2002.39,2001.3,2000.96,2000.67,2000.68,2000.72,2000.72,2002.34,2000.46,2000.57,2000.57,2000.63,2001.53,2001.24,2000.17,1997.52,2002.27,2001.32,2000.95,2000.97,2001.02,2001.05,2001.08,2001.21,1999.44,1998.66,2003.73,2001.09,2001.3,1999.38,2001.01,2002.69,2002.78,2002.14,1997.18,2001.17,2000.8,2001.22,2001.7,2000.82,2001.34,2001.34,2000.83,2000.73,2000.77,1999.62,1999.04,1997.25,1999.4,2000.76,2000.75,2000.77,2000.8,2000.85,2000.91,2001.1,2000.99,2001.64,2001.14,2000.88,2000.85,2000.82,2000.81,1999.89,2001.01,2002.29,2000.84,2000.73,2000.78,2001.21,2002.37,1997.45,2000.4,2002.74,2001.73,2000.98,2001.34,1999.54,2000.78,1999.28,1999.52,1997.1,2001.25,1996.56,1997.86,2001.26,2000.84,2000.69,2000.72,2000.16,1999.93,2002.6,2001.78,2002.38,2001.04,2000.8,2000.69,2000.62,2000.59,2000.58,2000.58,2000.58,2000.58,2000.63,2000.58,2000.93,2000.62,2000.62,2000.66,2000.73,2003.36,2002.56,2001.15,2001.33,2000.09,2003.14,2006.55,2006.76,1995.21,1989.89,1987.52,1988.41,1990.42,2004.94,2007.32,2003.29,2001.9,2001.34,2002.26,1998.88,2001.65,2000.61,2000.52,2000.48,2000.48,2000.53,2000.75,2001.22,2001.77,2001.42,2000.95,2000.61,2000.47,2000.46,1998.83,2001.96,2000.56,2000.98,2001.03,1998.1,2002.76,2001.24,2001.79,2001.17,2001,2001.08,2001.84,2002.12,2000.92,2000.78,1999.74,2000.56,2000.56,2000.85,2000.54,2000.64,2000.63,2000.66,2002.15,2000.6,2000.62,1998.02,2000.68,2000.51,2000.6,2002.7,1997.71,1995.58,2001.93,2000.64,2000.42,2000.37,2000.53,2000.46,2000.33,2000.69,2000.62,2000.32,2000.3,2000.36,2001.03,2002.93,1998.61,2001.02,2001.57,2001.26,2000.81,2000.63,2000.6,2000.58,2000.54,2000.51,2000.49,2000.47,2000.43,2000.52,2000.36,2000.34,2000.33,2000.3,2000.29,2000.28,2000.28,2000.3,2000.48,2000.42,2000.24,2000.22,2000.21,2000.23,1998.34,2000.22,2000.2,2000.2,2000.18,2000.2,2000.45,1997.3,2000.09,2000.07,2000.18,2000.17,2000.17,2000.16,2000.17,2000.24,2000.23,2000.19,2000.22,2000.21,2000.64,1998.8,2000.38,2000.24,2000.18,2000.16,2000.2,2000.95,2000.17,2000.31,2000,2000.21,2000.16,2000.19,2000.3,2001.29
2001.72,2002.47,2001.15,2001.26,2002.55,2001.09,2001.44,2002.21,2001.09,2000.95,2000.87,2000.9,2000.95,2001.17,1999.53,2001.29,2001.23,2001.64,2002.1,2001.59,2001.36,2001.73,2001.24,2005.5,2007.48,1996.74,1991.31,1992.49,2000.65,2003.84,2001.69,2001.14,2001.25,1999.49,2000.84,2001.92,1999.34,1998.22,2001.44,2001.84,2000.78,2000.72,1999.35,2000.88,2001.53,2001.81,2000.97,2000.54,2000.44,2000.45,2000.66,2000.64,2000.48,2000.42,2000.42,2000.45,2000.49,2000.58,2000.88,2001.85,1999.54,1995.53,1999.7,2002.06,2000.95,2000.99,2001.54,1999.48,1998.55,2000.72,2000.78,1999.58,2002.82,2000.62,2000.59,2000.61,2000.34,2000.43,2000.55,2000.48,2000.3,2000.27,2000.27,2000.27,2000.28,2000.29,2000.29,2000.31,2000.33,2000.37,2000.38,2000.38,2000.54,2002.29,2001.24,2000.73,2000.46,2000.48,2000.54,2000.6,2000.7,2000.75,2000.99,2002.32,2002.21,2002.25,1995.62,1997.57,2001.19,2000.97,2000.21,2000.72,2002.68,1999.86,2000.66,2000.56,2000.61,2000.67,2000.84,2001.62,2003.38,2003.94,2003.06,2001.62,2001.03,2000.86,2001.12,2001.18,2000.9,2001.29,2000.96,2000.6,2000.6,2000.63,2000.92,2000.9,2001.7,2002.12,2001.25,2001.06,2001.09,2001.17,2001.26,2001.33,2001.39,2001.36,2001.39,2001.4,2001.54,2001.13,2000.79,2001.4,2001.02,2000.31,2001.54,2001.14,2002.09,2001.13,2001.49,2000.82,2000.73,2000.76,2001.62,2002.28,2000.93,2000.71,2000.72,2001.15,2001.14,2001.04,2000.78,2000.71,2000.72,2000.74,2000.79,1998.87,2000.82,2000.82,2000.84,2000.85,2000.82,2000.78,2000.76,2000.74,2000.74,2000.95,1998.61,2000.32,2000.85,2000.7,2000.74,2000.94,2001.42,2003.61,1999.71,2002.88,2001.18,2000.95,2001.01,2000.78,2000.7,2000.89,2001.35,2001.78,1999.24,2000.13,2001.05,2001.65,2000.75,2000.67,2000.71,2000.9,2001.1,2001.15,2001.18,2000.53,2000.85,2002.41,2000.38,2000.62,2000.58,2000.57,2000.57,2000.77,2000.67,2000.58,2000.61,2000.6,2000.62,2000.67,2000.65,2000.71,2000.96,2001.22,2001.07,2001.36,2002.11,2003.64,2008.07,2003.37,1992.19,1983.63,1984.21,1985.47,1991.41,1999.94,2008.92,2003.66,2000.6,2001.35,2001.06,2000.99,2000.8,2000.6,2000.62,2000.52,2000.49,1998.71,2000.52,2000.59,2000.77,2000.73,2000.54,2000.45,2000.41,2000.42,2001.21,1998.19,2000.56,2000.43,2000.47,2000.58,2000.8,2000.28,1995.88,2004.59,2000.81,2000.72,2000.74,2000.71,2000.63,2000.56,2000.52,2000.48,2000.48,2000.49,2000.47,2000.49,2000.58,1999.42,2000.62,2000.53,2001.77,2001.8,2002.01,2001.04,2000.55,2000.98,2002.25,2004.82,2000.99,2000.53,2000.4,2000.37,2000.58,2000.34,2000.32,2000.58,2000.46,2000.38,2000.33,2000.38,2000.97,1998.71,2000.95,2004.56,1997.48,2001.23,2001.31,2000.72,2000.56,2000.51,2000.02,2000.43,2000.55,2000.93,2000.44,2000.99,2000.38,2000.33,2000.31,2000.3,2000.3,2000.3,2000.31,2000.48,2001.21,2001.55,2000.28,2000.25,2000.23,2000.22,2000.22,2000.2,2000.38,2000.72,2000.19,2000.19,2000.28,2000.65,2000.53,2000.26,2000.2,2000.29,2000.46,2000.25,2000.22,1996.26,1998.57,2000.23,2000.18,2000.18,2000.22,2000.3,2000.33,2000.2,2000.58,2000.23,2000.17,2000.18,2000.2,2001.04,2001.02,2001.57,2000.95,2000.58,2000.6,2000.72
2001.22,2001.33,2001.11,2001.06,2001.03,2000.99,2001.01,2001.06,1998.46,2001.38,2000.92,2000.96,2000.95,2000.96,2000.98,2001.05,2001.82,2001.03,2001.08,2001.09,2001.3,2003.32,1995.84,1999.67,2005.13,2001.56,1995.65,1997.09,2006.16,2003.03,2001.58,2001.09,2000.92,2000.84,2000.76,2000.79,2001.28,2002.06,1997.63,2002.19,2000.72,2000.61,2000.67,2001.66,2000.61,2000.6,2000.52,2000.45,2000.41,2000.4,2000.41,2000.41,2000.4,2000.4,2000.41,2000.46,2000.63,2001.05,2000.71,2001.19,2003.17,2006.94,2002.5,2001.16,2001.27,2003.08,1997.86,1999.73,2000.68,2000.44,2000.44,2000.57,2000.5,2000.39,2000.85,2001.13,2000.32,2000.3,2000.31,2000.31,2000.3,2000.31,2000.27,2000.27,2000.28,2000.29,2000.32,2000.35,2000.41,2002.14,2001.35,2000.39,2000.45,2000.58,1999.25,2000.49,2000.55,2000.64,2000.77,2000.88,2000.94,2001.02,2001.76,1996.71,1997.32,2001.96,2002.31,2004.71,2001.04,2000.77,2000.71,2000.68,2000.77,2001.35,2001.02,2000.03,1999.51,2002.91,2000.89,2001.88,2001.14,1995.31,1997.37,2003.26,2001.24,2001.47,2000.11,1998.86,2001.85,2001.06,2000.83,2000.74,1999.75,2000.64,2000.69,2000.84,2000.56,1998.94,2001.2,2001.19,2001.34,2001.52,2001.71,2001.93,2001.49,2002.09,2001.7,2001.57,2001.42,2001.32,2001.38,2001.03,2001.12,2001.32,2001.02,2001.42,2001.65,2001.84,1997.42,2000.95,2000.71,2000.75,2004.35,2000.62,2001.39,2000.72,2000.68,2000.69,2000.71,2000.71,2000.7,2000.69,2000.7,2000.78,2000.95,2000.9,2000.88,2000.88,1999.79,2001.92,2000.88,2000.73,2000.7,2000.69,2000.69,2001,2001.51,2000.71,2000.68,2000.72,2000.74,1998.82,2001.03,2000.09,2002.51,2001.13,2000.85,2001.67,1998.8,2000.76,2000.68,2000.66,2000.7,2000.76,2001.2,2001.01,2000.94,2000.83,2000.71,2000.67,2000.83,2001.32,2002.3,2001.97,2001.12,2000.85,2000.74,2001.52,2001.12,2000.65,2000.6,2000.69,2000.61,2000.69,2000.63,2000.56,2000.57,2000.58,2000.74,2000.21,2000.67,2000.74,2000.84,2000.97,2001.19,2001.43,2002.19,2008.37,2002.67,2005.09,1993.36,1988.23,1985.84,1986.47,1992.14,2003.78,2008.36,2003.58,2000.02,2001.42,2000.94,2000.75,2000.63,2000.65,1997.95,2000.96,2000.46,2000.48,2000.45,2000.44,2000.5,2000.62,2001.69,2000.39,2000.38,2000.41,2000.42,2000.46,2000.41,2000.41,2000.4,2000.46,2000.73,2002.09,2001.91,2001.93,2000.66,2000.56,2000.6,2000.59,2000.55,2000.49,2000.61,2000.55,2000.72,2000.92,2000.66,2002.43,2000.81,2001.79,2000.69,2000.39,2001.08,2000.54,2000.56,2000.78,2000.71,2000.85,2001.42,2001.98,2001.44,2000.62,2000.42,2000.36,2000.49,2000.39,2000.43,2000.35,2000.34,2000.72,2000.65,2000.34,2000.51,2000.73,2000.91,2001.48,2003.38,1998.41,2003.36,2001.65,2000.63,2000.49,2000.44,2000.38,2000.73,1999.83,2000.62,2001.83,2000.63,2000.35,2000.33,2000.33,2000.34,2000.38,2001.22,2000.38,2000.4,2000.36,2000.31,2000.91,2000.49,2000.24,2000.22,2000.21,2000.2,2000.2,2000.19,2000.22,1999.77,2000.45,1999,2000.22,2000.23,2001.23,1996.78,2000.65,2000.39,2000.55,1997.32,2000.4,2000.21,2000.25,2000.25,2000.52,1998.01,2000.27,2000.82,2000.28,2000.2,2000.24,2000.49,2001.97,2000.4,2000.35,2000.68,2000.92,1996.88,2002.57
2001.21,2001.16,2001.11,2001.06,2001.02,2001.02,2000.4,2001.18,2001.18,2001.21,2001.11,2001.08,2001.07,2001.29,2001,2000.95,2001.05,2001.04,2001.41,2001.78,2001.28,2002.25,2001.15,2005.43,2002.74,2004.65,2008.27,2007.21,2002.36,1998.93,2002.23,2001.16,2001.23,2000.85,2000.76,2000.72,2000.76,2001.32,1998.36,2001.99,2001.06,2000.83,2000.96,2000.55,2000.48,2000.46,2000.43,2000.41,2000.39,2000.38,2000.38,2000.39,2000.38,2000.38,2000.41,2000.66,2000.59,1998.49,2000.76,2000.72,2001.09,2001.32,2001.01,2000.78,2002.07,1997.53,2002.14,2002.04,2000.63,2000.39,2000.36,2000.38,1999.56,2000.35,2000.33,2000.34,2000.33,2000.3,2000.31,2000.33,2000.35,1998.36,2000.31,2000.29,2000.29,2000.33,2000.62,2000.82,1999.99,2000.24,2001.56,2000.39,2000.39,2000.97,2001.62,2000.58,2000.68,2001.56,2002.49,1999.63,2001.87,2001.85,2002.07,2000.94,2001.58,2001.5,2001.3,2001.63,2001.68,2000.95,2000.86,2000.79,2000.78,2001.94,1997.03,2001,2001.51,2001.5,2000.93,2002.63,1997.29,1991.8,1994.02,2003.93,2001.42,2002.03,1996.09,1994.97,2005.27,1997.94,2001.9,2000.92,2000.68,2000.74,2001.17,2000.84,2001.26,2002.21,2001.33,2001.46,2001.77,2002.19,2002.8,2003.39,2003.06,2002.98,2002.44,2002.1,2001.83,2001.8,2001.28,2001.13,2001.89,2000.37,2001.55,2001.15,1997.86,2001.25,2001.05,2000.77,2000.7,2000.72,2000.95,1998.19,2002.84,2000.72,2000.67,2000.67,2000.69,2000.79,2000.86,2000.71,2000.71,2001.11,2000.37,2002.16,2000.18,2003.09,2001.32,1997.81,2001.56,2000.72,2000.66,2000.65,2000.66,2000.81,2000.92,2000.65,2000.67,1998.75,2000.97,2000.77,2000.79,2002.77,2001.19,2000.76,2000.7,2000.74,2000.82,2000.43,2000.94,2000.7,2000.65,2001.04,2003.33,2000.75,2000.65,2000.86,2000.75,2000.81,2001.35,2003.27,1992.78,1994.54,2000.13,2002.05,2000.91,2001.3,2001.06,2002.39,2000.74,1998.68,2000.89,2000.56,2000.55,2000.58,2000.62,2000.67,2000.62,2000.65,2000.71,2001.07,2001.24,2001.36,1999.52,2001.99,2001.96,2008.79,2003.08,2011.23,1998.86,1986.89,1987.54,1991.59,1997.43,2008.73,2006.06,2003.17,1997.94,2001.56,2000.88,2000.69,2000.59,2000.61,2001.58,2000.6,2000.44,2000.5,2000.26,2000.4,2000.39,2000.41,2000.43,2000.38,2001.05,1999.16,2000.38,2000.35,2000.65,1999.99,2000.42,2000.66,2001.37,2001.45,2001.16,2000.69,2000.5,2000.5,2001.06,2001.43,1998.65,2000.69,2000.53,2000.65,2001.97,1996.89,2001.55,2001.8,2004.62,1998.18,2000.94,2000.47,2000.46,2000.46,2000.83,2000.42,2001.54,2001.63,2001.66,1999.3,2003.99,2000.95,2000.48,2000.38,2000.43,2000.73,1999.15,2000.67,2000.51,2000.4,2000.43,2000.32,2000.36,1999.34,2000.71,2001.91,2003.03,2002.91,1996.6,2003.11,2001.9,2000.46,2000.35,2000.35,2000.41,2000.68,1999.1,1997.22,2001.11,2000.42,2000.37,2000.38,2000.43,2000.48,2000.59,2000.49,2000.46,2000.47,2000.5,2000.43,2000.58,2000.26,2000.23,2000.22,2000.21,2000.2,2000.2,2000.24,2000.83,1998.19,2000.59,2000.25,2000.26,2000.63,2001.08,2000.53,2000.23,2000.29,2000.37,2000.25,2000.34,1999.16,2000.65,2000.39,2000.43,2000.8,2000.4,2000.37,2000.31,2000.45,2000.72,2001.11,2000.42,2000.21,2000.25,2000.57,1999.83,2001.47
2001.31,2001.18,2001.12,2001.07,2001.03,2001.02,2001.46,2001.09,2001.24,1998.7,2001.79,2001.73,2001.45,2002.64,2001.12,2000.94,2000.92,2001.17,2001.35,2001.44,2001.31,2001.62,2001.63,2002,2001.76,2002.09,2002.43,2002.35,2002.24,2002.47,2001.48,2001.14,2001.71,2002.41,2000.94,2000.72,2000.69,2000.74,2000.91,2000.9,1998.92,1999.53,2000.55,2000.53,2000.49,2000.43,2000.41,2000.39,2000.38,2000.38,2000.4,2000.52,2000.42,2000.39,2000.43,2000.61,2001.98,1999.48,2002.24,2000.54,2000.76,1997.34,2001.76,2000.66,2000.92,2005.77,2002.41,1998.31,2000.58,2000.36,2000.35,2000.39,2000.47,2000.32,2000.32,2000.52,1999.5,2000.36,2000.42,2002.83,2000.82,2000.43,2000.31,2000.3,2000.3,2000.43,1999.6,1997.32,2001.15,2000.46,2000.4,2000.34,2000.36,2000.54,2000.8,2000.63,2001.11,2000.94,1998.63,2004.61,2006.88,2006.11,2004.77,2002.36,2001.68,2001.67,2001.9,2001.72,2001.71,2001.43,2001.2,2001.05,2000.91,2000.97,2001.31,2000.71,2000.62,2000.67,2000.89,2001.87,2001.27,2002.31,2004.56,2003.22,2001.24,2002.5,2003.32,2001.98,2003.06,1994.82,1998.39,2001.67,2000.85,2000.81,2001.41,2000.87,2001.4,1999.87,2001.67,2001.9,2002.54,2003.6,2006.22,2001.16,2004.72,2005.37,2003.99,2003.19,2002.47,2001.93,2001.54,2001.28,2001.18,2001.35,2001.24,2003.55,2002.34,2000.98,2000.81,2000.74,2000.72,2000.71,2000.75,2000.9,2000.81,2000.7,2000.69,2000.69,2000.73,2001.9,1998.23,2000.81,2000.69,2001.08,1998.54,2002.11,2001.18,2001.69,2001.81,2001.76,2002.82,2000.73,2000.63,2000.62,2000.63,2001.53,2000.26,2000.64,2000.61,2000.8,2000.7,2001.18,2001.26,2000.7,2000.67,2000.64,2000.64,2000.72,2001.03,2000.93,2000.71,2000.62,2000.64,2002.67,1997.73,2000.81,2000.6,2000.6,2000.94,2002.1,1997.62,2003.18,1992.71,1994.47,2000.43,1999.61,2001.1,1997.92,2001.55,1998.38,1999.91,2001.49,2000.66,2000.55,2000.57,2000.78,2001.63,1998.26,2000.67,2000.65,2000.8,2001.13,2001.25,2002.43,2001.87,2001.62,2001.97,2002.51,2004.01,2007.4,2009.24,2002.24,1999.97,2009.83,2007.87,2008.11,2003.99,2002.33,2001.67,2001.1,2000.8,2000.65,2000.56,2000.56,2000.68,2000.48,2000.43,2000.43,2000.43,2000.41,2000.39,2000.43,1999.76,2000.49,2000.64,2000.39,2000.33,2000.33,2000.36,2000.38,2000.52,1997.61,1997.36,1999.46,2000.6,2000.55,2000.43,2000.45,2001.5,2001.38,2000.62,2000.43,2000.38,2000.52,2002.58,1997.56,2001.63,2000.42,1994.76,2000.14,2000.83,2001.58,1998.77,2000.77,2001.44,2001.55,2001,2003.19,1994.73,1992.69,1998.99,2001.33,2000.53,2000.43,2000.7,2003.22,1999.22,2001.96,1999.6,1998.17,2000.45,1999.1,2000.41,2000.79,2000.65,2000.93,2002.34,2002.37,1997.49,2004.27,2000.72,2000.4,2000.33,2000.36,2000.95,2002.27,2001.55,2001.04,2001.21,2001.77,2000.64,2000.49,2002.12,2001.23,2001.19,2001.09,2000.9,2000.73,2000.91,2000.39,2000.34,2000.31,2000.27,2000.24,2000.22,2000.21,2000.21,2000.24,2000.67,1998.83,2000.58,2000.52,2000.56,2000.36,2000.37,2000.43,2000.19,2000.26,2000.21,2000.25,2000.71,1999.6,1995.78,2000.93,2000.74,1996.96,2001.29,2002.42,2000.92,2000.65,1997.87,1998.17,2000.46,2000.23,2000.23,2000.33,2000.51,2000.65
2001.41,2001.2,2001.14,2001.09,2001.05,2001.03,2001.05,2001.13,2001.47,2002.61,2005.28,2004.34,2003.4,2000.03,2001.3,2001.01,2000.94,2000.94,2001.03,2001.39,2000.19,1998.52,2001.4,2000.99,2001.52,2001.56,2001.7,2001.86,2001.55,2001.39,2001.24,2001.42,2001.65,1999.52,2001.25,2000.78,2000.68,2000.64,2000.63,2000.88,1998.05,2001.46,2000.7,2001.56,2001.11,2000.43,2000.4,2000.39,2000.39,2000.38,2000.46,1997.68,2000.6,2000.41,2000.77,2001.51,2000.74,2001.1,2000.73,2000.45,2000.74,2001.24,2000.75,2000.55,2000.69,2000.54,2000.56,2000.54,2000.39,2000.34,2000.55,1998.54,2000.33,2000.3,2000.4,1999.05,2001.19,2000.36,2000.64,1999.52,1996.61,2000.91,2000.34,2000.53,2000.31,2000.38,2001.2,2003.11,1999.79,2000.42,2000.4,2000.33,2000.35,2000.39,2000.48,2000.76,2002.21,2002.05,2005.31,2000.48,1995.98,1998.89,2007.65,2003.25,2002.03,2003.83,1999.07,2004.1,2001.05,2002.59,2001.99,2001.73,2001.5,2001,2001.28,2000.73,2000.61,2000.74,2001.59,2001.86,1999.44,2003.57,2002.85,2001.41,2000.9,2001.58,2001.06,1997.68,2002.18,2001.84,2001.36,1998.98,2001.22,2000.74,2000.86,2000.92,2001.16,2001.17,2002.29,2002.57,2003.98,2007.19,2007.27,2011.11,2013.52,2010.62,2008.27,2005.96,2003.94,2002.93,2001.92,2001.49,2001.23,2001.08,2001,2001.06,1998.9,2001.02,2000.78,2000.87,2001.66,2000.72,2000.72,2000.73,2000.72,2000.72,2000.85,2001.22,2000.81,1999.66,2001.74,2000.73,2000.66,2000.72,2000.95,2001.48,2001.53,1998.07,1997.12,2002.71,1999.95,2000.71,2000.61,2000.59,2000.6,2000.75,2000.84,2000.6,2000.57,2000.58,2000.62,1999.89,2001.07,2000.85,2000.69,2000.6,2000.78,2001.37,1997.4,2000.24,2000.72,2000.62,2000.65,2000.76,2000.92,2000.69,2000.61,2000.59,2001.3,2000.96,2001.45,2001.63,2002.44,2002.31,2002.85,1998.42,2000.85,2000.94,1999.42,2000.76,2001.25,2002.07,2000.67,2000.55,2000.58,2001.45,1996.66,2001.24,2000.65,2000.7,2000.89,2001.98,2005.18,1998.61,2001.24,2003.64,1999.8,2002.41,2002.61,2003.92,2006.18,2009.24,2011.29,2011.61,2007.04,2004.15,2001.66,2001.95,2001.21,2000.91,2000.72,2000.6,2000.52,2000.48,2000.46,2000.46,2000.69,2000.6,2000.57,2000.57,2000.45,2000.42,2002.03,2000.43,2000.33,2000.32,2000.32,2000.35,2000.45,2000.38,2000.38,2000.65,2000.57,2000.53,2001.34,2002.06,2000.68,2000.42,1998.3,2000.48,2000.39,2000.36,2000.34,2000.39,2000.81,2001.26,2000.86,2002.4,1996.44,2002.1,2002.29,2000.79,2000.56,2001.17,1996.24,2000.31,2001.24,2002.76,1996.56,1994.45,2001.01,2001.16,2000.54,2000.69,2001,1999.88,1999.38,2001.94,2001.53,2000.71,2000.42,2000.39,2000.38,2001.28,1999.23,2001.44,2001.8,1995.31,2001.16,2001.17,2000.53,2000.36,2000.32,2000.4,2001.62,1997.53,2001.8,1999.75,2001.03,2000.81,2001.26,2000.7,2001.77,2001.89,2000.58,1998.44,2003.2,2000.95,2000.61,2000.48,2000.42,1998.77,2000.36,2000.27,2000.25,2000.24,2000.35,2000.32,2000.29,2000.35,2000.36,2001.7,1997.41,2001.02,2000.27,2000.2,2000.18,2000.7,2000.25,2000.26,2001.03,1997.16,1996.41,2001.23,2000.44,2000.74,1999.52,1993.78,2000.65,2000.93,2000.37,2000.68,2001.71,2000.31,2000.26,2000.33,2000.48,2000.82
2001.35,2001.28,2001.2,2001.11,2001.07,2001.11,2001.1,2001.23,2000.65,2004.94,1995.95,1995.17,2002.2,2002.53,1998.45,2001.16,2000.98,2000.97,2001,2001.06,2001.28,2001.62,2001.31,2002.07,2001.53,2001.59,2004.92,2000.02,2001.7,2001.51,2001.39,2001.64,2001.25,2001.12,2000.93,1998.9,2000.73,2000.65,2000.6,2000.6,2000.7,2000.83,2000.8,2000.6,2000.48,2000.43,2000.41,2000.49,2000.85,2000.41,2000.03,2000.5,2000.41,2000.41,2001.37,1996.91,2000.86,2000.44,2000.4,2000.39,2000.43,2000.43,2000.46,2000.7,2000.4,2000.38,2000.37,2000.36,2000.33,2000.32,2000.35,2000.4,2000.31,2000.3,2000.3,2000.32,2000.31,2000.35,2000.83,2001.12,2001.2,2000.48,2000.34,2000.76,2000.32,2000.33,2000.38,2000.44,2001.09,2000.71,2000.74,2000.34,2000.35,2000.39,2000.82,2000.97,2001.24,2002.05,2006.87,1992.57,1990.49,1993.74,2002.84,2003.58,2002.58,2002.39,2007.91,2008.17,2006.41,2005.03,2004.39,1999.45,2002.3,2001.2,1999.01,2000.87,2000.65,1999.07,1997.61,1999.25,2001.79,2001.85,2001.4,2001.44,2000.66,2000.61,2000.84,1994.88,1996.45,2001.49,2000.72,2000.79,2000.76,2000.75,1998.71,2001.04,2001.21,2001.71,2002.32,2003.58,2005.38,2009.31,2013.01,2006.51,2004.34,2006.21,2012.36,2007.86,2006.07,2003.88,2003.22,2001.78,2001.37,2001.15,2001.06,2001.79,2000.98,2000.83,2000.78,2000.77,2000.77,2000.76,2000.77,2000.77,2000.78,2000.79,2001.52,1997.55,2000.91,2000.73,2000.69,2000.99,2000.66,2000.63,2000.75,2002.03,2001.69,2002.24,2003.25,2000.94,2000.73,2000.62,2000.59,2000.57,2000.56,2000.57,2000.57,2000.57,2000.56,2000.55,2000.56,2000.62,2001.04,1997.31,2001.33,2000.6,2000.61,2000.83,2001.06,2001.88,2000.67,1998.73,2002.32,2001.23,1999.79,2001.13,1999.16,2000.57,2000.81,2001.36,2001.08,2001.33,2000.82,2000.98,1998.24,1999.35,2000.76,1999.68,2000.93,2000.56,2000.61,2001.52,2000.65,2000.56,2000.57,2000.98,1999.89,2000.74,2000.63,2001.28,2001.61,2002.18,1998.31,1992.62,1994.8,2006.08,2001.73,2001.55,2000.25,2002.62,2003.05,2003.78,2004.19,2003.88,2003.26,2002.46,2001.91,2001.59,2001.09,2000.78,2000.64,2000.56,2000.49,2000.45,2000.43,2000.47,1998.65,2002.89,2002.3,2002.43,2000.8,2000.42,2000.37,2000.34,2000.32,2000.37,2000.35,2000.46,1997.57,2000.76,2000.34,2000.33,2000.34,2000.36,2000.57,2001.88,2001.64,2000.39,2000.47,2000.43,2000.61,2000.58,2000.34,2000.34,2000.38,2000.44,2000.55,2000.9,2001.33,2000.86,2000.48,2000.39,2000.41,2000.65,2002.14,2001.96,2005.35,2003.07,2003.05,2005.73,2001.65,2000.72,2000.55,2001.81,2000.91,2004.4,2000.3,1997.66,2000.6,1999.52,2000.97,2000.43,2000.36,2001.26,2001.64,2002.61,2001.42,2001.57,2001.67,2000.88,2000.93,2000.51,2000.32,2000.45,1997.77,1999.15,2000.53,2000.68,2001.54,2000.56,2000.68,2001,2001.74,2001.54,2002.28,1998.78,2001.94,2001.31,2000.84,2000.62,2000.5,2000.52,2000.39,2000.32,2000.27,2000.26,2000.61,2000.44,2000.27,2000.28,2000.35,2001.43,1997.52,2001.03,2000.28,2000.2,2000.18,2000.19,2000.21,2000.23,2000.44,2001.34,2001.53,2000.57,2000.27,2000.6,2001.95,1997.91,2001.68,2001.49,2000.43,2000.42,1999.42,2000.36,2000.28,2000.36,2000.56,2001.1
2001.63,2001.58,2000.36,2001.16,2001.12,1999.49,2001.23,2001.3,2002.02,2003.67,1994.89,1994.13,2001.01,2002.19,2001.45,2001.11,2001.03,2001.04,2001.08,2001.14,2001.32,2002,2001.44,2001.57,2001.71,2001.91,2003.74,2003.64,2000.57,2001.97,2001.81,2002.02,2002.62,2001.32,2001,2000.86,2000.75,2000.67,2000.61,2000.58,2000.56,2000.75,1997.45,2001.62,2000.56,2000.43,2000.41,2000.48,2000.76,2000.88,2000.5,2000.38,2000.37,2000.38,2000.49,2000.66,2000.45,2000.39,2000.39,2000.45,2000.44,2000.38,2000.37,2000.36,2000.35,2000.35,2000.34,2000.33,2000.32,2000.32,2000.78,2000.41,2000.36,2000.34,2000.29,2000.29,2000.29,2000.39,1998.95,1998.59,2000.46,2000.4,2000.36,1999.94,2000.43,2000.34,2000.35,2000.38,2000.53,2000.4,2000.34,1999.6,2000.4,2000.38,2000.49,2000.89,2001.07,2001.89,2007.57,1996.36,1992.42,1994.55,2004.39,2003.52,2003.04,2005.01,2010.13,2008.07,2005.1,2007.51,2009.15,2003.72,2002.72,2001.65,2001.08,2000.78,2000.64,2000.7,2001.42,2001.29,2001.56,2002.41,2003.65,2001.75,2000.58,2000.53,2000.61,2001.35,2001.66,2000.93,2000.63,2000.6,2000.64,2000.72,2000.87,2001.03,2001.31,2001.81,2002.76,2005.03,2012.26,2011.46,2000.31,1994.54,1992.6,1994.27,1999.72,2009.6,2009.26,2004.87,2002.6,2002.08,2001.53,2001.24,2001.16,1999.83,2001.04,2000.87,2000.82,2000.81,2000.82,2000.84,2000.87,2000.91,2000.73,2001,2001.33,2001.19,2000.6,2000.84,2000.65,2000.79,2000.64,2000.6,2000.62,2000.7,2000.72,2000.74,2001.48,2002.15,2000.63,2000.69,2000.61,2000.56,2000.54,2000.55,2000.59,2001.07,2000.61,2000.55,2000.55,2000.57,2000.8,2001.15,2000.9,2000.56,2000.55,2000.6,2000.69,2000.64,2000.56,2000.58,2000.7,2001.34,1997.23,2001.32,2000.59,2000.55,2000.93,2000.97,2000.69,2000.81,2000.61,2000.81,2001.09,2000.93,2000.63,2000.61,2000.54,2000.53,2000.62,2000.1,2000.89,2000.81,2000.6,2000.64,2000.74,2000.62,2000.64,2000.77,1999.51,2001.99,2000.45,1994.54,1996.79,2003.29,2001.38,2001.19,2001.47,2001.58,2001.79,2002.06,1999.94,2002.24,2001.85,2002.18,2001.01,2001.65,2000.93,2000.69,2000.59,2000.58,2000.49,2000.43,2000.41,2000.42,2000.56,2001.13,1996.72,1995.56,2001.46,2000.44,2000.58,2000.79,2000.36,1999.82,2000.62,2000.44,2000.89,2000.45,2000.36,2000.35,2000.34,2000.37,2000.6,2000.17,2000.73,2000.45,2001.07,2001.11,2001.28,2000.53,1999.86,2000.43,2000.38,2000.5,2000.67,1998.78,2000.57,2000.43,2000.35,2000.94,2000.88,2000.45,2000.85,2003.16,1994.74,1996.43,2002.29,2001.26,2000.68,2001.71,2000.62,2000.42,2000.4,2000.57,2000.71,2001.57,1998.51,2000.56,2000.72,2000.32,2000.4,2002.23,2001.49,2001.22,2000.77,2000.68,2000.87,1997.01,1997.32,1999.08,2000.33,2000.35,2000.9,2001.03,2000.39,2000.42,2000.5,2000.64,2000.9,2001.36,2002.09,2003.03,2003.85,2004,2003.05,2001.96,2001.53,2000.91,2000.67,2000.64,2001.35,2000.54,2000.32,2000.3,2000.31,2000.32,2000.33,2000.34,2000.36,2000.46,2000.59,1998.54,2000.41,2000.24,2000.19,2000.3,2000.27,2000.22,2000.25,2000.33,2000.36,2000.36,2001.8,2000.47,2000.47,2000.61,2000.71,1998.39,2000.41,1997.97,2000.66,1999.71,2000.38,2000.39,2000.61,2001.27
2001.56,2001.3,2001.25,2001.17,2001.12,2001.13,2001.3,1999.72,2001.67,2003.28,2001.56,2000.69,2008.66,1999.9,2001.32,2001.15,2001.13,2001.17,2001.6,2001.47,2001.48,2001.63,2001.82,2002.08,2002.35,2002.63,2001.67,2003.58,2000.92,2003.01,2002.67,2002.57,1997.87,2001.87,2001.16,2000.94,2000.81,2000.71,2000.64,2000.59,2000.57,2000.64,2001.47,2000.93,2000.76,2000.48,2000.42,2000.41,2000.43,2000.82,2000.43,2000.39,2000.39,2000.37,2000.37,2000.37,2000.37,2000.55,2000.7,1999.31,2001.34,2000.43,2000.37,2000.36,2000.36,2000.36,2000.36,2000.36,2000.35,2000.35,2000.45,2000.39,1999.69,2002.21,2000.31,2000.28,2000.29,2000.33,2000.57,2000.6,2000.39,1999.14,2000.94,2000.47,1997.92,2000.41,2000.47,2000.74,2000.62,2000.42,2000.37,2000.38,2000.35,2000.37,2000.43,2000.55,2000.79,2001.93,2003.55,2004.89,2000.1,2002.95,2005.2,2003.01,2003.76,2008.02,2003.35,1995.77,1993.26,1995.33,2002.54,2008.81,2003.75,2002.09,2001.26,2000.83,2000.65,2000.59,2000.63,2000.9,2003.79,2003.92,1999.13,2001,2000.55,2000.53,2000.52,2000.57,2000.62,2000.81,2000.73,2000.58,2000.63,2000.73,2000.87,2001.1,2001.47,2002.06,2003.24,2006.36,2011.28,2002,1992.49,1987.12,1985.3,1986.89,1991.96,2001.09,2014.82,2006.26,2003.52,2003.08,2001.75,2001.35,2001.16,2001.36,2001.16,2002.16,2000.91,2000.89,2000.93,2000.99,2001.08,2001.47,2001.56,2001.29,1997.86,2002.09,2000.9,2000.74,2000.66,2000.63,2000.61,2000.6,2000.59,2000.59,2000.6,2000.61,2000.65,2000.64,2000.66,1999.08,2001.33,2000.58,2000.54,2000.55,2001.41,2001.79,2000.75,2000.65,2000.56,2000.57,1999.4,2000.6,2000.55,2000.52,2000.52,2000.89,2001.62,2000.75,2000.53,2000.54,2000.54,2000.62,2000.79,2000.62,2000.52,2000.52,2000.57,1998.83,2000.57,2000.52,2000.55,2002.92,2002.23,2000.57,2000.95,1998.84,2000.52,2000.51,2000.55,2001.06,2001.86,1999.19,2000.98,2000.78,2000.63,2000.67,2000.83,2001.52,2002.04,2001.17,2002.32,2005.6,2004.56,2001.58,2001.04,2000.94,2000.99,2001.09,2001.22,2001.31,2001.42,2001.44,2001.42,2001.35,1999.31,1999.98,2000.86,2000.66,2000.55,2000.72,2000.5,2000.41,2000.39,2000.4,2000.46,2000.84,2003.97,2001.84,2000.83,2000.4,2000.44,2000.5,2000.46,1999.92,2002.7,1998.6,2000.36,2000.39,2000.85,2000.97,2000.44,1998.66,2001.09,2002.19,1997.86,2000.64,1998.08,1998.03,2001.23,2001.82,2000.36,2000.36,2000.5,1994.56,2002.63,2000.11,2000.69,2000.38,2000.31,2000.32,2000.35,2000.57,2001.03,2003.09,1994.66,1996.27,2001.98,2001.52,2000.46,2000.39,1998.43,2000.81,2000.31,2000.31,2000.34,2000.39,2000.3,2000.27,2000.27,2000.28,2000.53,2000.38,2001.26,1996.99,1999.47,2000.72,2000.67,2000.85,2000.5,2000.41,2000.35,1999.21,1998.72,2000.48,2000.37,2000.43,2000.55,2000.79,2001.25,2002.25,2004.42,2009.14,2007.22,2007.93,2007.51,2003.76,1999.98,2001.69,1999.85,2000.44,1996.68,2001.13,2000.37,2000.35,2000.37,2000.43,2000.48,2000.51,2000.58,2000.64,2001.23,2000.57,1999.31,2000.31,2000.21,2000.22,2000.37,2001.77,2000.26,2000.26,2000.74,2001.28,2000.66,2001.15,2000.59,2000.34,2000.39,2000.44,2000.31,2000.47,2000.31,2000.33,2000.32,2000.39,2000.6,2001.16
2002.16,2001.38,2001.3,2001.2,2001.14,2001.11,2001.2,2002.09,2001.34,2001.66,2002.27,2002.45,2002.59,2002.65,2001.39,2001.38,2002.28,2001.48,2000.86,2001.88,2002.41,2002.44,2002.74,2003.43,2004.79,2009.91,2004.77,2005.49,2005.95,2005.63,2004.66,2003.81,2005.3,2002.16,2001.4,2001.09,2000.89,2000.77,2000.68,2000.62,2000.59,2000.62,2000.64,2001.44,1997.42,2000.61,2000.44,2000.49,2001,2000.51,2000.42,2000.68,2001.66,2000.46,2000.37,2000.35,2000.36,2000.53,2000.75,2001.56,2000.01,2000.63,2000.41,2000.39,2000.42,2000.49,2000.49,2000.53,2000.55,1998.67,2000.34,2000.37,2000.7,2000.53,2000.31,2000.29,2000.29,2000.3,2000.39,2000.68,2001.27,2000.58,2000.68,1999.36,2000.47,2000.44,2000.97,1997.71,2001.05,2000.59,2000.49,2000.4,2000.37,2000.37,2000.42,2000.64,2000.82,2000.98,2001.58,2002.65,2003.64,2003.11,2003.02,2002.7,2004.73,2009.55,1996.3,1989.78,1983.5,1989.11,2002.45,2008.98,2003.77,2002.39,2001.69,2000.92,2000.67,2000.57,2000.59,2001.22,1996.39,1996.47,2001.46,2000.64,2000.85,2001.9,2000.62,2000.49,2000.49,2000.51,2000.54,2000.58,2000.63,2000.73,2000.91,2001.5,2004.16,2002.55,2003.68,2006.95,2011.96,1998.08,1988.64,1983.42,1981.68,1981.26,1988.09,1996.88,2010.64,2007.41,2003.91,2001.9,2003.03,2001.51,2001.49,2001.1,2001.21,2001.66,2001,2001.19,2001.21,2001.31,2001.59,2001.91,2002.04,2001.76,2001.65,2001.2,2000.89,2000.86,2000.73,2000.66,1999.82,2000.74,2000.71,2000.59,2000.58,2000.61,2000.79,2000.85,2001.58,2001.44,2000.89,1998.51,2000.55,2000.54,2000.68,2001.2,2001.51,2001.49,2000.63,2000.56,2000.59,2000.52,2000.5,2000.5,2000.5,2000.61,2001.15,2000.71,2000.61,1999.61,2000.55,2000.55,2000.67,2000.52,2000.5,2000.52,2000.68,2000.52,2000.5,2000.49,2000.5,2000.67,2000.66,2000.52,2000.53,2000.54,2000.5,2000.51,2000.54,2000.8,2001.82,2001.14,1998.32,2001.5,2000.71,2000.97,1999.56,2003.13,2000.94,2000.83,2001,2001.19,2001.12,2000.92,2000.81,2000.8,2000.81,2000.86,1999.3,2001,2001.01,2000.38,2002.39,2002.11,2002.69,2002.27,2001.41,2000.78,2000.54,2000.46,2000.43,2000.43,2000.39,2000.43,2000.7,2001.64,2000.91,1998.22,2000.5,2000.36,2000.36,2000.76,1999.64,2001.09,2002.11,2000.51,2000.32,2000.47,1998.36,1997.24,2000.63,2000.71,2003.37,2000.99,2000.75,1998.53,2000.89,2000.83,2000.49,2000.43,2000.33,2000.37,2000.7,2001.93,1994.68,1997.95,2001.11,2000.41,2000.3,2000.33,1998.81,1999.09,2001.14,2001.21,2005.05,2002.31,2000.86,2000.45,2000.33,2000.31,2000.44,2000.34,2000.26,2000.26,2000.26,2000.25,2000.25,2000.24,2000.25,2000.29,2001.32,2001.33,2000.8,2001.25,2000.9,2004.68,2004.22,2000.86,2000.53,2000.2,2000.38,2000.34,2000.46,2000.37,2000.77,2000.61,2000.63,2000.96,2001.73,2000.55,2009.9,1984.81,1994.84,1995.15,2000.97,2008.27,2003.14,2001.66,2001.08,2000.84,2000.95,2000.53,2000.4,2000.42,2000.52,2000.71,2002.36,2001.29,2001.19,2002.33,2000.8,2001.82,2001.72,2000.29,2000.28,2000.37,2000.49,2000.4,2000.46,2000.67,2000.68,2002.02,2000.64,2001.14,1998.43,2000.43,2001.09,2003.8,2000.72,2000.31,2000.26,2000.28,2000.3,2000.38,2000.57,2001.02
2001.71,2000.99,1999.54,2001.31,2001.16,2001.12,2001.11,2001.12,2001.15,2001.24,2001.5,2003.63,1996.47,1997.65,2001.69,2000.15,2001.77,2001.75,2002.05,2003.75,1998.56,2004.43,2005.3,2009.57,2014.85,2009.22,2009.61,2013.69,2010.4,2011.49,2011.71,2006.35,2000.5,2003.15,2001.77,2001.61,2001.06,2000.84,2000.74,2000.67,2000.72,1999.68,2001.16,2001.83,1998.77,2000.53,2000.45,2000.6,1999.94,2001.65,2000.51,2000.68,2001.7,1999.23,2000.39,2000.35,2000.35,2000.37,2000.52,2000.07,1998.77,1998.06,2000.57,2000.48,2000.7,2001.48,2001.2,2001.61,1999.52,2000.59,2000.36,2002.26,2002.58,2000.43,2000.35,2000.49,2000.35,2000.31,2000.57,2001.21,2000.59,2000.37,2001.01,2000.73,2000.59,2000.53,2001.07,1998,2001.38,2000.79,1999.49,2000.71,2000.4,2000.38,2000.41,2001.55,2000.32,2000.81,2001.56,2001.24,2001.59,2001.68,2001.81,2002.52,2006.1,2006.1,1994.33,1987.51,1985.56,1985.44,1994.43,2006,1999.62,1998.43,2002.04,2001.15,2000.76,2000.63,2000.92,2000.82,2002.58,2002.67,2000.8,2000.53,2001.41,1997.41,2000.82,2000.52,2000.48,2000.51,2000.61,2000.61,2000.68,2000.77,2000.95,2003.74,1997.53,2001.45,2005.05,2007.02,2011.55,1998.41,1988.48,1983.16,1981.34,1982.85,1987.72,1996.48,2010.18,2007.62,2004.02,2002.61,2002.16,2001.58,2001.74,2001.16,2001.08,2001.04,2001.07,2000.24,2002.36,2002.59,2003.11,2004.69,1996.93,2003.78,2002.26,2001.44,2001.03,2001.53,2000.9,2000.66,2000.8,2000.48,1999.99,2000.64,2000.61,2000.73,2001.02,2001.16,2001.24,2000.88,2000.57,2000.55,2000.52,2000.55,2000.67,2002.24,1995.42,2000.58,2000.7,2000.87,1999.3,2000.52,2000.51,2001.82,2000.49,2000.49,2000.64,1998.54,2000.6,2001.04,2000.67,2000.62,1999.82,2000.52,2000.52,2000.57,2001.03,2000.54,2000.51,2000.49,2000.49,2000.78,2000.53,2000.58,2000.64,2000.56,2000.53,2000.51,2000.55,2000.66,1998.87,2000.9,2000.93,2000.87,2000.84,2001.18,1998.18,2001.44,2000.86,2000.74,2000.72,2000.73,2000.72,2000.71,2000.91,2001.11,2000.74,2000.71,2000.77,1999.29,2000.87,2001.05,2001.41,2002.55,2002.1,1998.61,1996.97,2001.43,2000.57,2000.49,2000.49,1998.73,2000.44,2000.57,2000.73,1999.88,2001.4,2000.53,2000.84,2000.4,2000.45,1998.94,2002.26,2000.97,2001.15,2000.36,2000.29,2000.37,2001.18,2001.48,2000.49,2001.51,1995.91,2002.87,2000.45,2000.5,2000.36,2000.34,2000.38,2000.91,2000.85,2000.5,2000.73,2002.26,1995.03,1998.3,2001.08,2000.42,2000.31,2000.3,2000.43,2000.72,1999.19,2000.54,2000.63,2000.65,2000.56,2000.34,2000.3,2000.27,2000.26,2000.25,2000.25,2000.24,2000.24,2000.24,2000.24,2000.24,2000.26,2000.3,2000.45,2000.59,2000.48,2000.53,2001.5,1995.98,1994.66,2001.88,2002.48,2002.52,2000.46,2000.33,2000.8,2000.43,2000.5,2000.55,2000.71,2001.15,2002.22,2005.73,2001.9,1992.66,1990.29,1989.48,1994.1,2005.38,2004.56,2003.39,2001.98,2001.02,1999.77,2000.46,2000.44,2000.53,2000.8,2001.43,2003.1,2003.3,2002.23,2001.92,2002.76,1996.64,2000.54,2000.33,2000.52,1999.19,2001.59,2000.35,2002.12,1997.74,2000.34,2000.26,2000.27,2000.38,2000.44,2000.51,1999.06,1995.24,1998.01,2000.47,2000.54,2000.46,2000.34,2000.37,2000.57,1999.24
2001.43,2002.2,2001.94,2001.3,2001.18,2001.13,2001.1,2001.09,2001.11,2001.17,2001.29,2002.09,2001.62,2001.63,2001.5,2002.41,2002.21,2002.61,2003.21,2006.85,1998.98,2005.58,2011.84,2003.7,2002.69,2008.4,2011.36,2000.68,1996.79,1997.58,2002.95,2013.05,2006.04,2001.85,2001.44,1998.1,2001.41,2000.93,2000.84,2000.79,2000.82,2001.06,2000.9,2000.59,2000.55,2000.49,2000.59,2000.54,2000.91,2002.72,2000.68,1997.83,2001.08,2000.53,2000.37,2000.35,2000.35,2000.36,2000.42,2000.61,2000.84,1999.26,2000.88,2000.66,2001.91,1997.18,1999.75,2000.86,1998.63,2000.61,2000.35,2000.56,2000.9,2000.5,2001,1997.18,2000.65,2000.32,2000.54,1998.3,2000.82,2000.39,2000.52,2000.62,2002.26,2001.02,2001.05,2001.89,2001.57,2000.93,1997.02,2002.47,2000.43,2000.38,2000.43,2000.48,2000.53,2000.59,2000.75,2000.89,1998.41,2001.25,2001.42,2002.27,2000.32,2002.66,1997.37,1989.86,1987.45,1989.4,1995.98,2008.51,2005.4,2003.18,2001.68,1998.57,2001.9,2000.6,2000.56,2000.53,2000.71,2000.63,2000.49,2000.44,2000.51,2000.74,1998.76,2001.82,2000.53,2000.57,1998.3,2000.84,2002.88,2001.22,2000.93,2001.32,2002.04,2002.31,2003.74,2006.21,2015.13,2002.59,2011.02,1986.78,1984.5,1991.98,1990.86,1999.86,2014.04,2006.79,2003.86,2002.62,2001.98,2001.61,2001.39,2001.25,2001.16,2001.11,2001.15,2001.36,2001.98,2003.52,2009.21,2001.13,1999.72,2004.76,2004.72,2003.08,2001.29,2001.29,2001.41,2000.65,2000.63,2001.02,2001.06,2000.62,2000.68,2001.24,2001,2001.64,2001.27,2000.67,2000.54,2000.51,2000.53,2000.84,2001.25,2001.07,2003.36,2001.23,2000.6,2000.58,2000.72,2000.49,2000.49,2000.66,2000.47,2000.46,2000.51,2000.66,2000.52,2000.61,2000.55,2000.54,2000.54,2000.55,2000.68,1999.27,2000.85,2001.55,2001.21,2000.53,2000.5,2000.93,2000.62,2000.66,2000.6,2001.08,2000.63,2000.54,2000.59,2002.45,2001.38,2001.09,2000.97,2001.1,2001.28,2001.24,2001.78,2001.14,2001.43,2001.21,2000.7,2000.72,2000.78,2000.64,2001.53,1998.16,2000.87,2000.68,2000.63,2000.68,2000.65,2000.7,2001.73,1995.98,2001.92,1998.86,1997.22,2001.36,2000.58,1999.9,2000.94,2000.45,2001.42,2001.93,2001.56,2003.4,2001.32,2000.52,1997.86,2000.75,2000.32,2000.33,2000.32,2000.67,2000.33,2000.28,2000.27,2000.28,2000.32,2000.34,2000.34,2000.6,2002,1999.95,2000.8,1998.81,2000.35,2000.35,1999.99,2001.05,2001.53,1998.41,2000.78,2001.05,2000.47,2001.52,2000.66,2000.46,2000.37,2000.39,2000.33,2000.45,2000.76,2000.48,2000.4,2000.65,2001.03,2000.65,2000.37,2000.27,2000.3,2000.29,2000.27,2000.26,2000.24,2000.24,2000.24,2000.25,2000.27,2000.37,2001.46,1998.4,2001.11,2000.59,2001.18,1999.24,1998.8,2001.43,1997.9,2001.86,2000.52,2000.42,2000.86,2001.13,2000.55,2000.55,2001.35,2003.28,2003.28,2006.46,2000.01,1991.21,1982.67,1985.54,1992.57,2003.55,2005.58,1997.15,2000.02,2000.88,2000.57,2000.47,2000.51,2000.68,2001.31,2003.5,2002.14,1999.18,2004.22,2002.85,2001.57,1996.91,2000.93,2000.37,2000.69,1998.16,2002.12,2000.32,2000.33,2000.4,2000.26,2001.01,2000.47,2000.24,2000.41,2000.42,2001.63,2000.44,2000.82,2000.31,2000.47,2001.74,2000.33,2000.36,2000.57,2002.16
2002.73,2001.92,2001.4,2000.22,2001.29,2001.15,2001.11,2001.09,2001.13,2001.62,2001.59,2002.09,2001.94,2001.39,2001.67,2002.33,2003.64,2005.76,2008.19,2004.06,2005.24,2008.72,2006.3,1998.7,1997.69,2002.96,1988.64,1992.89,1984.07,1989.32,1994.18,2003.92,2007.57,2004.06,2002.65,2000.99,2001.28,2001.07,2001.13,2001.3,2001.17,1999.04,2000.88,2000.76,2000.62,2000.53,1999.32,2000.47,2000.49,2000.48,2000.54,2001.89,2000.66,2000.4,2000.35,2000.34,2000.34,2000.36,2000.41,2000.5,2000.73,2003.26,2002.07,2000.96,2002.67,1995.77,1998.24,1999.19,2000.77,2000.41,2000.33,2000.32,2000.33,2000.48,1999.22,2000.64,2000.37,2000.32,2000.56,2000.75,2000.42,2000.63,2001.43,2001.82,1995.06,2002.18,2002.86,1999.96,2002.25,2001.65,2001.12,2000.72,2000.42,2000.41,1999.85,2000.41,2000.46,2000.59,2000.56,2000.66,2000.85,2001.14,2001.19,2001.93,2001.95,2005.21,2004.95,2006.48,1994.57,1996.44,2003.6,2007.8,2003.39,2001.89,2001.28,2001.41,2000.91,2000.57,2000.48,2000.56,1999.12,2000.48,2000.41,2000.39,2000.41,2000.62,2002.18,2000.82,2003.24,2000.84,2000.74,2000.84,1999.63,2001.87,2000.96,2000.02,2001.42,2001.89,2002.88,2004.88,2010.09,2006.9,2004.46,1995.45,1990.94,1992.86,1997.92,2011.71,2010.57,2005.56,2003.66,2003.19,2002.14,2001.75,2001.54,2002.92,2002.12,2001.23,2001.26,2001.5,2002.31,2005.63,2000.16,1992.66,1991.34,1995.82,2007.51,2003.04,2001.51,2001.11,2000.97,2000.65,2000.59,2000.59,2000.68,2000.62,2000.75,2002.36,1993.28,1993.17,2002.44,2000.73,2000.53,2000.5,2000.56,2000.89,1997.18,2001.05,2000.71,2000.57,2000.5,2000.47,2000.47,2000.47,2000.46,2000.46,2000.45,2000.45,2000.47,2000.59,2000.53,2001.09,2001.73,1999.43,2000.76,2000.85,2002.98,2002.29,1999.6,2000.73,2001.57,1999.14,2000.54,2000.56,2001.24,2000.84,2000.99,2000.73,2000.64,2000.68,2000.64,2001,2001.32,2001.16,2001.52,2001.99,2000.03,2001.85,2000.08,2001.59,1998.54,1999.44,2000.84,2000.57,2000.67,2000.58,2000.77,2001.4,2000.01,2001.02,2000.6,2000.79,2000.67,2000.58,2000.87,2003.33,2001.23,2001.1,2001.14,2000.64,2000.49,2001.27,2000.65,2001.71,2001.59,2002.67,2000.53,2000.45,2000.39,2000.4,2000.63,2000.37,2000.28,2000.3,2000.37,2000.29,2000.29,2000.29,2000.26,2000.26,2000.27,2000.27,2000.27,2000.31,2000.37,2000.47,2000.99,2002.01,2000.67,2001.12,2000.55,2000.39,2000.93,1998.74,2000.64,2000.48,2000.62,2000.62,2000.93,2003.87,2000.9,1998.35,2000.48,2000.62,2001.57,2001.34,2000.46,2000.4,2000.66,2001.27,2000.5,2000.31,2001.98,2000.87,2000.86,2000.35,2000.26,2000.26,2000.27,2000.28,2000.3,2000.41,2003.06,1996.59,2001.63,2001.3,2001.42,2001,2001.22,2000.69,2000.77,2000.8,2002.15,2000.72,1999.03,1996.69,2000.86,2000.57,2001.45,2003.1,2002.65,2005.23,2003.61,1993.96,1990.42,1990.97,1995.94,2001.29,2004.61,2003.46,2000.73,2000.77,2000.53,2000.52,1999.44,2001.01,2001.9,2004.72,1994.12,1991.55,1995.9,2006,2002.07,2002.73,2000.65,2000.37,2000.48,2001.13,2000.47,2000.26,2000.22,2000.22,2000.23,2002.05,2000.5,2000.26,2001.41,2000.53,2000.34,2000.39,2000.29,2000.23,2000.23,2000.26,2000.3,2000.34,2000.57,1998.65
2002.19,2000.32,2001.41,2001.4,2000.16,2001.2,2001.17,2001.11,2001.16,2002.44,1997.41,2001.8,2001.35,2001.57,2002.06,2003.66,2009.73,2002.03,1999.9,2003.99,2002.83,2007.21,2007.97,2000,1998.91,2004.25,2000.23,1988.56,1984.82,1985.34,1990,1999.23,2012.25,2004.68,2002.55,2001.74,2001.3,2001.3,2002.49,2001.06,2003.7,2001.42,2001.13,2002.72,2001.98,2000.55,2000.46,2000.43,2000.41,2000.41,2000.41,2000.43,2000.51,2000.94,2000.37,2000.35,2000.35,2000.36,2000.58,2001.34,2001.4,2002.83,2001.79,2001.91,2001.63,2000.2,1998.61,2001.02,2000.46,2000.35,2000.32,2000.31,2000.3,2000.33,2000.63,2000.38,2000.29,2000.35,1999.83,2000.35,2000.42,1999.71,1995.98,1999.87,2001.26,2001.55,1999.18,1992.78,1994.73,2003.19,2001.89,1999.09,2000.43,2000.36,2000.37,2000.39,2000.5,2001.51,2000.68,2001.21,2000.74,2000.28,2001,2001.42,2002.53,2003.94,2006.9,2010.22,2007.11,2009.55,2007.8,2003.93,2002.24,2001.47,2001.21,2001.13,2000.89,2000.71,2000.48,2000.48,2000.52,2000.75,2000.59,2000.38,2000.43,2001.76,2000.5,2002.69,1997.02,2001.46,2000.68,2002.86,1998.57,2001.32,2000.86,2001.34,2001.25,2001.64,2002.34,2003.65,2006.72,2013.26,2010.27,2004.12,2001.46,2003.19,2009.15,2012.1,2006.95,2004.56,2003.67,1999.62,2002.48,2001.98,2001.74,2001.85,2001.89,2001.38,2001.4,2001.88,2003.22,2008.32,1997.76,1990.51,1989.23,1993.57,2004.81,2004.1,2001.76,2000.99,2000.75,2000.64,2000.58,2000.57,1999.82,2000.72,2000.69,2001.64,1996.44,1996.33,2001.7,2000.68,2000.53,2000.56,2000.54,2000.78,2001.08,2002.16,2001.01,2000.49,2000.47,2000.46,2000.52,2000.71,2000.52,2000.45,2000.44,2000.45,2000.48,2000.91,2000.69,2000.54,2000.53,2000.56,2000.59,2001.46,1996,1999.32,2001.48,2001.03,2002.68,2000.67,2000.69,2000.87,2001.8,1996.79,2000.65,2002.55,2000.68,1998.64,2000.77,2000.83,2001.15,2001.82,2003.16,2005.26,2003.68,2004.23,2002.55,2001.58,2001.38,2001.08,2000.8,1999.14,2000.58,2000.53,2000.67,2002.11,1997.43,2001.33,2000.61,2001.88,2000.83,2000.54,2000.53,2000.56,2000.54,2000.52,2000.49,2000.43,2000.39,2000.38,2000.36,2000.48,2000.49,1999.08,1999.72,2000.43,2000.51,2000.76,2000.77,2000.29,2000.27,2000.32,2000.74,2000.38,2000.5,1999.76,2000.3,2000.25,1999.92,2000.35,2000.27,2000.27,2000.31,2000.41,2000.61,2001.21,2000.99,2001.15,1997.58,2000.46,2000.36,2000.41,2000.48,2000.69,1999.04,2001.14,2002.65,1995.43,2003.14,2000.58,2000.48,2002.21,1996.6,2000.99,2000.83,2000.62,2001.1,1997.19,2000.67,2000.3,2000.47,2000.65,1996.61,2000.62,2000.29,2000.31,2000.37,2000.42,2000.39,2000.4,2000.59,2000.94,2000.99,2002.34,2005.54,2001.83,1999.86,2000.65,1999.59,2000.86,1998.5,2001.84,2000.49,2002.52,2000.61,2000.56,2000.54,2001,2002.68,2003.5,2008.2,2002.54,1998.14,1998.44,2004.76,2001.18,2003.17,2001.55,2001,2000.65,2000.5,2000.48,2000.63,2001.34,2001.97,2004.09,1993.64,1991.1,1995.42,2006.56,2002.32,2001.24,2000.47,2000.35,2000.41,1998.05,2000.49,2000.24,2000.21,2000.21,2000.21,2000.23,2000.29,2000.34,2001.97,2000.65,2000.21,2000.2,2000.2,2000.2,2000.21,2000.23,1998.99,2000.36,2000.42,2000.64
2001.77,2001.53,2001.37,2001.3,2001.26,2001.43,2000.6,2001.14,2001.27,2001.79,2001.71,2001.32,2001.73,2000.49,2002.55,2005.98,2001.36,1993.5,1991.61,1995.22,2005.3,2014.48,2011.25,2007.98,2006.67,2012.77,1996.96,1988.08,1984.56,1985.19,1989.84,1999.04,2012.46,2004.74,2002.73,2001.75,2001.36,2001.56,2001.42,1993.86,1996.54,2002.31,2001.21,1999.02,2002.34,2000.57,2000.45,2000.43,2000.41,2000.4,2000.4,2000.41,2000.36,2000.66,2000.39,2000.35,2000.35,2000.36,2000.43,2000.7,2002.82,1995.7,1994.83,2003.73,2001.19,2002.54,2000.78,2000.68,2000.38,2000.33,2000.44,2000.52,2000.32,2000.34,1998.42,2000.55,2000.29,2000.37,1998.83,2000.35,2000.42,2000.95,1999.51,2003.97,2000.77,2001.3,2000.65,1994.06,1996.06,2002.65,2000.91,2000.7,2000.39,2000.35,2000.36,2000.43,2000.82,2002.16,2001.13,1998.33,2000.73,2000.65,2000.81,2001.35,2001.49,2002.12,2003.16,2004.15,2005.25,2004.25,2003.13,2002.17,2001.53,2001.3,2003.14,2000.14,2003.94,2001.35,2000.51,2000.42,2000.4,2000.43,2000.48,2000.41,2000.46,2000.57,2001.1,2000.86,2000.89,2000.57,2000.52,2000.65,2001.02,2000.73,2000.77,2000.9,2001.1,2001.41,2001.91,2002.77,2003.67,2006.84,2008.86,2011.8,2013.39,2012.14,2009.33,2006.78,2005.43,2004.08,2003.43,2003.14,2003.28,2002.87,2002.09,2001.86,2001.91,2002.01,2001.6,2001.91,2004.26,2001.4,2001.75,1994.08,1992.73,1997.31,2009.64,1997.45,2002.94,2000.99,2000.73,2000.86,2000.69,2000.54,2000.54,2000.54,2000.58,2000.79,2001.28,2001.34,2000.58,2000.73,2000.65,2001.09,2000.63,2000.48,2000.5,2000.53,2000.55,2000.5,2000.46,2000.47,2000.79,1997.36,2001.46,2000.47,2000.44,2000.46,2000.53,2000.96,2006.44,2000.66,2000.6,2000.62,2000.58,2000.86,2003.68,2000.78,2001.93,2000.94,2001.54,2000.82,2001.58,1998.18,2000.61,1997.94,1999.65,1995.92,2001.71,2000.75,2000.21,2000.97,2001.56,2003.27,2005.01,1996.47,1994.75,1999.28,2006.07,2002.32,2001.26,2000.85,2000.67,2000.6,2000.52,2000.5,2000.72,2002.18,1996.08,2002.66,2000.66,2000.65,2000.52,1998.41,2000.49,2000.43,2000.42,2000.41,2000.39,2000.39,2000.37,2000.34,2000.32,2000.32,2000.38,2001.17,1999.85,2001.15,2000.43,2000.76,2000.4,2000.28,2000.27,2000.63,1998.89,1998.11,2000.7,2001.04,2000.32,2000.27,2000.28,2000.44,2000.56,2000.28,2000.38,1998.55,2000.63,2001.81,2001.34,2002.14,2000.93,2001.15,2000.36,2000.31,1999.57,2000.47,2001.41,1996.68,1999.86,2001.82,2000.09,2000.4,2000.47,1998,1994.15,2001.5,2002.43,2002.19,2000.96,2000.63,2000.36,2000.28,2000.31,2000.76,2001.44,2000.42,2000.33,2000.42,2000.97,2002.03,2000.84,2000.48,2000.51,2000.65,2001.61,1998.36,1995.48,2003.33,2003.78,2001.3,2000.55,2000.39,2000.49,2000.57,2000.85,2000.46,2000.41,2000.49,2001.37,2001.58,2001.3,2002.04,2003.44,2006.33,2009.82,2008.12,2005.25,2003.02,2001.74,2001.13,2000.92,2000.64,2000.48,2000.44,2000.5,2000.7,2001.38,2004.33,2000.49,1997.66,2002.54,2001.03,2001.56,2000.77,2000.45,2000.4,2000.46,2000.4,2000.29,2000.23,2000.22,2000.21,2000.21,2000.22,2000.8,1999.64,2000.23,2000.22,2000.19,2000.19,2000.19,2000.2,2000.21,2000.23,2000.26,2000.3,1999.92,2000.53
2001.66,2001.49,2001.38,2001.38,2002.08,2001.36,2001.2,2001.16,1997.96,1997.86,2003.89,2001.27,2001.39,2001.73,2002.92,2004.98,1998.61,1991.03,1989.21,1992.7,2002.38,2006.82,2005.88,2008.38,2011.6,2014.26,2000.32,1991.93,1988.28,1988.89,1993.7,2003.31,2009.38,2004.19,2002.41,2001.86,2001.44,2001.51,2004.78,1997.3,1999.58,2002.96,2000.98,2000.9,2000.78,2000.64,2000.47,2000.43,2000.43,2000.44,2000.44,2000.41,2000.52,2000.52,2000.96,2000.36,2000.35,2000.36,2000.42,2000.63,2002.03,1998.28,1997.36,2003.23,2000.92,2001.22,2000.64,2000.42,2000.35,2000.34,2001.14,1999.91,2001.73,2000.3,2000.33,2000.3,2000.29,1999.68,2000.31,2000.47,2000.67,2000.55,2003.49,2001.34,2000.9,2001.67,2001.91,2004.59,2002.87,2001.14,2000.57,2000.42,2000.37,2000.36,2000.37,2002.09,2001.1,1999.92,2000.75,2000.52,2000.5,2000.55,2000.79,1999.58,2001.16,2001.29,2001.69,2001.47,2002.15,2001.96,2001.66,2001.56,2001.16,2001.23,2002.6,1994.41,1997.59,2001.08,2000.57,2000.71,1999.24,2000.4,2000.75,1999.59,2001.11,2000.47,2000.44,2000.44,2000.45,2000.46,2000.48,2000.51,2000.57,2000.64,2000.71,2000.82,2000.99,2001.22,2001.59,2002.15,2003.58,2004.22,2004.69,2005.62,2006.35,2006.07,2005.56,2004.97,2004.47,2004.19,2004,2003.78,2002.5,2003.08,2002.69,2002.31,2002.51,1998.74,2001.86,2001.84,2003.28,2001.74,2007.87,2004.4,2002.81,2008.23,2002.43,2003.25,2001.48,2000.97,2000.72,2000.73,2000.69,2000.55,2000.51,2000.5,2000.51,2000.56,2000.71,2000.89,2000.86,1999.71,1999.58,2000.55,2000.46,2000.45,2000.47,2000.54,2001.28,2001.41,2000.76,2000.54,1998.48,2001.02,2000.68,2000.46,2000.45,2000.48,2000.63,2003.33,2002.47,2001.24,2002.6,1998.19,2000.78,2000.65,2000.82,2001.07,2000.52,1994.35,1999.45,2001.01,2000.82,2000.88,2001.34,2001.14,2002.25,2000.57,2001.07,2000.67,2000.76,2001.08,2002.02,2005.75,1995.51,1988.08,1986.55,1990.55,2001.17,2003.41,2001.49,2000.9,2000.66,2000.54,2000.49,2000.47,2000.55,2001.27,1999.1,2001.55,2000.96,1997.58,2000.61,2000.44,2000.52,2000.48,2000.43,2000.48,2000.41,2000.99,2001.11,2000.34,2000.3,2000.3,2000.36,2001.16,2000.48,2000.4,2000.52,2001.65,2001.09,2000.29,2000.27,2000.42,2000.39,2001.02,2000.53,2000.56,2001.28,2000.9,2000.38,2000.52,2002.1,2000.31,2000.34,2000.48,2000.93,1999.71,1993.9,1998.5,2002.7,2000.42,2000.42,2000.28,2000.31,2000.39,2001.33,1996.85,2000.04,2000.74,2000.68,2000.32,2000.36,2000.76,2001.59,2002.98,1995.75,1995.79,2002.37,2000.58,2000.34,2000.42,2000.33,2000.3,2000.33,2000.33,2000.4,2000.68,2001.37,1995.88,2004.07,2000.68,1999.07,2000.84,2001.54,1998.8,1996.09,1999.55,1994.97,2001.75,2000.63,2000.34,2000.3,2000.31,2000.31,2000.32,2000.35,2000.46,2000.62,2000.69,2001.05,1998.22,2002.01,2001.72,2002.8,2003.18,2002.32,2001.55,2001.11,2001.15,1997.67,2001.26,2000.49,2000.42,2000.45,2000.56,2000.87,2001.62,2004.22,2004.68,2003.35,2001.44,2001.19,2000.64,1999.38,2000.88,1998.12,2000.83,2001.17,2000.26,2000.23,2000.22,2000.22,2000.24,2000.26,2000.29,2000.8,2000.84,2000.28,2000.25,2000.23,2000.21,2000.23,2000.26,2000.28,2000.29,2000.57,2000.42
2001.63,2001.5,2001.42,2001.51,1998.51,2001.68,2001.35,2001.19,2001.28,2002.07,2001.43,2001.96,2001.75,2001.73,2002.5,2005.77,2001.94,1994.01,1992.11,1995.75,2005.92,2005.61,2004.93,2005.8,2010.94,2008.55,2009.97,2001.66,1996.48,1996.88,2002.08,2013.16,2004.46,2004,2002.39,2003.52,2002.5,2003,2001.86,2001.16,2002.2,2001.07,2000.88,2000.97,2002.19,1999.06,2000.51,2000.46,2000.49,2000.91,2000.92,2000.47,2000.41,2000.39,2000.38,2000.36,2000.36,2000.37,2000.4,2000.5,2000.85,2001.8,2001.96,2001.78,2000.77,2000.45,2000.39,2000.35,2000.32,2000.32,2000.38,1999.15,2000.34,2000.29,2000.28,2000.28,2000.28,2000.34,2000.28,2000.29,2000.32,2000.57,1997.46,1999.97,2000.77,2001.27,2001.25,2001.01,2000.84,2000.58,2000.43,2000.38,2000.39,2000.42,2000.45,2001.12,2000.83,2000.43,2000.4,2000.41,2000.44,2000.47,2000.68,2001.24,2000.78,2000.9,2001.1,2002.29,2001.35,2001.15,2001.03,2000.96,2000.85,1999.83,2001.77,1999.87,2003.64,2000.79,2000.57,2000.92,1998.54,2000.45,2000.45,2000.45,2000.4,2000.39,2000.39,2000.4,2000.52,2000.09,2000.47,2000.49,2000.56,1999.38,2000.67,2000.76,2000.9,2001.08,2001.77,2003.22,2002.11,2002.59,2003.1,2003.63,2003.49,2004.34,2006.08,2004.33,2004.96,2005.8,2007.05,2005.95,2009.77,2005.7,2004.7,2002.97,2002.69,2002.72,2001.9,2001.69,2002.03,2002.42,2004.1,2003.86,2003.44,2003.27,2000.71,2001.99,2001.04,2000.66,2000.71,2001.65,1999.4,2000.59,2000.51,2000.49,2000.48,2000.49,2000.54,1999.59,2000.6,2001.22,2001.43,2000.54,2000.45,2000.48,1998.41,2000.8,2000.08,2001.37,2001.77,2000.49,2000.6,2001.05,2000.55,2000.46,2000.46,2000.49,2000.65,2001.66,1999.53,2001,2000.99,2001.64,1997.95,2000.82,2000.26,2001.76,2002.23,1999.05,2002.58,2000.66,2000.1,2000.54,2000.53,2000.58,2000.66,2000.71,2000.63,2000.63,2000.75,2001.12,2002.23,2007.2,1992.89,1985.72,1984.24,1988.11,1998.31,2003.99,2001.61,2000.93,2000.66,2000.53,2000.47,2000.45,2000.46,2000.55,2000.69,2000.63,2001.62,2001.02,2000.45,2000.38,2000.46,2000.4,2000.91,1998.26,2000.62,2000.21,2002.33,2000.33,2000.29,2000.28,2000.28,2000.29,2000.34,2000.31,2000.67,1999.46,2000.76,2000.39,2000.41,2000.81,2000.75,2000.47,2001.51,2001.25,2000.49,2000.45,1998.97,2001.37,2000.55,2000.32,2000.43,2000.77,2001.48,2003.74,1997.06,2001.95,2000.06,2000.88,2000.37,2000.29,1999.8,2000.45,2000.52,2000.97,2000.82,2000.42,2000.29,2000.27,2000.31,2000.46,2001.33,2001.22,1995.03,1995.07,2003.16,2000.84,2000.38,1998.61,2000.73,2000.28,2000.29,2000.35,2000.74,1999.25,2002.06,2000.38,2002.34,2000.88,2000.79,2000.91,2000.83,2002.4,2005,2002.75,1997.75,2005.2,2000.55,2000.32,2000.28,2000.29,2000.31,2000.33,2000.4,2001.22,1998.27,2000.65,2002.78,2000.7,2001.15,2001.21,2001.3,2001.29,2001.14,2000.93,2000.77,2000.89,2000.44,2001.16,2001.55,2000.47,2000.43,2000.47,2000.58,2000.8,2001.24,1997.33,2001.85,2001.25,1999.13,2000.83,2000.43,2000.9,1999.13,2000.68,2000.92,2000.35,2000.29,2000.28,2000.27,1998.64,2000.27,2000.22,2000.49,2000.71,2000.41,1999.37,2000.58,2000.27,2000.43,2000.78,2000.86,2000.32,2000.3,2000.32
