2000.03,2000.03,2000.02,2000.02,2000.02,2000.02,2000.02,2000.03,2000.05,2000.03,2000.02,2000.02,2000.02,2000.02,2000.02,2000.02,2000.02,2000.02,2000.02,2000.01,2000.01,2000.01,2000.01,2000.01,2000.01,2000.01,2000.01,2000.01,2000.01,2000.01,2000.01,2000.01,2000.01,2000.01,2000.01,2000.01,2000.01,2000.01,2000.01,2000.01,2000.01,2000.03,2000.04,2000.03,2000.01,2000.01,2000.01,2000.01,2000.01,2000.01,2000.01,2000.01,2000.01,2000.01,2000.01,2000.02,2000.02,2000.02,2000.02,2000.03,2000.03,2000.03,2000.03,2000.04,2000.04,2000.05,2000.06,2000.08,2000.11,2000.18,2000.25,2000.4,2000.8,2001.96,2007.1,1995.48,1996.28,1989.14,1994.62,2008.24,2002.11,2000.84,2000.41,2000.23,2000.14,2000.09,2000.07,2000.06,2000.06,2000.07,2000.07,2000.05,2000.03,2000.02,2000.01,2000.01,2000.01,2000.01,2000,2000,2000,2000.01,2000.01,2000.02,2000.06,2000.18,2000.12,2000.04,2000.02,2000.01,2000.01,2000.01,2000.01,2000.01,2000.01,2000.02,2000.04,2000.11,2000.12,2000.14,1999.54,2000.21,2000.03,2000.01,2000.01,2000.01,2000.01,2000.01,2000.02,2000.35,1999.85,2000.03,2000.02,2000.05,1999.71,2000.02,2000.02,2000.02,2000.01,2000.01,2000,2000.01,2000.02,2000.32,2000.22,2000.02,2000.01,2000.01,2000.01,2000.01,2000.02,2000.53,2000.19,2000.01,2000.01,2000.01,2000.01,2000.01,2000,2000,2000,2000,2000,2000,2000,2000,2000,2000.01,2000.01,2000.02,2000.01,2000.01,2000.01,2000.01,2000.01,2000.02,2000.09,2000.05,2000.04,2000.07,2000.2,2000.26,2000.11,2000.06,2000.07,2000.08,2000.09,2000.11,2000.12,2000.13,2000.15,2000.22,2000.21,2000.13,2000.1,2000.08,2000.07,2000.06,2000.11,2000.05,2000.03,2000.02,2000.02,2000.02,2000.01,2000.01,2000.01,2000.01,2000.01,2000.01,2000,2000,2000,2000,2000,2000,2000,2000,2000,2000,2000,2000,2000,2000,2000,2000,2000,2000,2000,2000,2000,2000,2000,2000,2000,2000,2000,2000,2000,2000,2000.01,2000.03,2000.04,2000.02,2000.01,2000.01,2000.01,2000.01,2000.01,2000.01,2000.01,2000.01,2000.01,2000.01,2000.01,2000.01,2000.01,2000.01,2000.01,2000.01,2000.04,2000.05,2000.06,2000.04,2000.04,2000.04,2000.04,2000.04,2000.04,2000.04,2000.04,2000.04,2000.04,2000.05,2000.05,2000.05,2000.05,2000.05,2000.05,2000.05,2000.05,2000.05,2000.05,2000.06,2000.06,2000.07,2000.12,2000.08,2000.07,2000.07,2000.07,2000.07,2000.07,2000.08,2000.08,2000.08,2000.08,2000.08,2000.08,2000.08,2000.09,2000.09,2000.09,2000.09,2000.09,2000.09,2000.09,2000.1,2000.1,2000.1,2000.11,2000.12,1999.59,2000.19,2000.12,2000.12,2000.14,2000.19,2000.14,2000.14,2000.18,2000.43,2000.17,2000.15,2000.15,2000.15,2000.16,2000.16,2000.16,2000.17,2000.17,2000.18,2000.18,2000.19,2000.21,2000.23,2000.25,2000.24,2000.22,2000.21,2000.2,2000.2,2000.2,2000.21,2000.21,2000.21,2000.21,2000.21,2000.22,2000.22,2000.22,2000.23,2000.23,2000.23,2000.23,2000.24,2000.24,2000.24,2000.24,2000.24,2000.24,2000.24,2000.24,2000.24,2000.24,2000.24,2000.25,2000.25,2000.25,2000.25,2000.24,2000.24,2000.24,2000.24,2000.24,2000.24,2000.24,2000.24,2000.24,2000.23,2000.23,2000.23,2000.23,2000.23,2000.22,2000.22,2000.22,2000.21,2000.21,2000.21,2000.21,2000.2,2000.2,2000.2,2000.33,1999.08,2000.24,2000.25,2000.2,2000.19,2000.18,2000.18,2000.18,2000.18,2000.17,2000.17,2000.17,2000.17,2000.16
2000.03,2000.03,2000.03,2000.03,2000.03,2000.03,2000.02,2000.04,1998.28,2000.04,2000.02,2000.02,2000.02,2000.02,2000.02,2000.02,2000.02,2000.02,2000.02,2000.01,2000.01,2000.01,2000.01,2000.01,2000.01,2000.01,2000.01,2000.01,2000.01,2000.01,2000.01,2000.01,2000.01,2000.01,2000.01,2000.01,2000,2000,2000.01,2000.01,2000.01,2000.01,2000.01,2000.01,2000.01,2000.01,2000.01,2000.01,2000.02,2000.03,2000.03,2000.03,2000.02,2000.02,2000.02,2000.02,2000.02,2000.03,2000.03,2000.03,2000.03,2000.03,2000.03,2000.04,2000.04,2000.05,2000.06,2000.07,2000.1,2000.14,2000.21,2000.34,2000.64,2001.8,2002.81,2004.96,1998.03,1997.72,2004.03,2003.64,2001.41,2000.66,2000.35,2000.21,2000.13,2000.09,2000.07,2000.06,2000.09,2000.32,2000.56,2000.15,2000.04,2000.02,2000.01,2000.01,2000.01,2000.01,2000,2000,2000.01,2000.01,2000.01,2000.01,2000.02,2000.02,2000.02,2000.02,2000.01,2000.01,2000.01,2000.01,2000.01,2000.01,2000.01,2000.02,2000.11,2001.35,2001.04,2000.14,2000.07,2000.08,2000.09,2000.01,2000.01,2000.01,2000.01,2000.01,2000.01,2000.06,2000.11,2000.02,2000.01,2000.01,2000.01,2000.01,2000.01,2000.01,2000,2000,2000,2000,2000.01,2000.01,2000.01,2000.01,2000.01,2000,2000,2000,2000.01,2000.02,2000.02,2000.01,2000.01,2000.03,2000.32,2000.03,2000.01,2000.01,2000.01,2000.01,2000.01,2000,2000,2000,2000.01,2000.01,2000.01,2000.02,2000.01,2000.01,2000.01,2000.01,2000.01,2000.01,2000.02,2000.02,2000.04,2000.15,2000.68,1998.19,2000.3,2000.08,2000.08,2000.11,2000.12,2000.1,2000.09,2000.09,2000.1,2000.1,2000.1,2000.08,2000.07,2000.07,2000.05,2000.06,1998.97,2000.06,2000.03,2000.02,2000.02,2000.02,2000.01,2000.01,2000.01,2000.01,2000.01,2000.01,2000,2000,2000,2000,2000,2000,2000,2000,2000,2000,2000,2000,2000,2000,2000,2000,2000,2000,2000,2000,2000,2000,2000,2000,2000,2000,2000,2000,2000,2000.01,2000.03,2000.33,2001.01,2000.07,2000.01,2000.01,2000.01,2000.01,2000.01,2000.01,2000.01,2000.01,2000.01,2000.01,2000.01,2000.01,2000.01,2000.01,2000.01,2000.04,2000.04,2000.11,2000.11,2000.04,2000.04,2000.04,2000.04,2000.04,2000.05,2000.05,2000.04,2000.04,2000.05,2000.05,2000.05,2000.05,2000.05,2000.05,2000.05,2000.05,2000.05,2000.05,2000.06,2000.06,2000.06,2000.06,2000.06,2000.07,2000.07,2000.07,2000.07,2000.07,2000.08,2000.09,2000.09,2000.09,2000.09,2000.09,2000.08,2000.09,2000.09,2000.09,2000.09,2000.09,2000.09,2000.1,2000.1,2000.1,2000.1,2000.11,2000.11,2000.12,2000.16,2000.13,2000.12,2000.12,2000.21,1999.69,2000.15,2000.14,2000.15,2000.15,2000.15,2000.15,2000.16,2000.16,2000.16,2000.17,2000.17,2000.18,2000.18,2000.19,2000.2,2000.22,2000.26,2000.35,2000.39,2000.31,2000.25,2000.22,2000.22,2000.21,2000.21,2000.21,2000.22,2000.22,2000.22,2000.22,2000.23,2000.23,2000.23,2000.24,2000.24,2000.24,2000.24,2000.25,2000.27,2000.27,2000.26,2000.26,2000.25,2000.25,2000.26,2000.26,2000.26,2000.26,2000.26,2000.26,2000.26,2000.26,2000.26,2000.26,2000.26,2000.25,2000.25,2000.25,2000.25,2000.25,2000.25,2000.25,2000.25,2000.26,2000.24,2000.24,2000.23,2000.23,2000.23,2000.23,2000.22,2000.22,2000.22,2000.21,2000.21,2000.21,2000.22,2000.24,2000.31,1997.98,2000.24,2000.2,2000.2,2000.19,2000.19,2000.18,2000.18,2000.18,2000.17,2000.17,2000.17
2000.03,2000.03,2000.03,2000.03,2000.04,2000.03,2000.03,2000.03,2000.04,2000.04,2000.03,2000.02,2000.02,2000.02,2000.03,2000.06,2000.03,2000.02,2000.02,2000.02,2000.01,2000.01,2000.02,2000.02,2000.02,2000.01,2000.01,2000.01,2000.01,2000.01,2000.02,2000.02,2000.01,2000.01,2000,2000,2000,2000.01,2000.02,2000.02,2000.01,2000.01,2000.01,2000.01,2000.02,2000.02,2000.02,2000.02,2000.03,2000.09,2000.35,2000.12,2000.03,2000.02,2000.02,2000.02,2000.03,2000.03,2000.03,2000.04,2000.04,2000.05,2000.04,2000.04,2000.04,2000.05,2000.06,2000.07,2000.09,2000.12,2000.18,2000.27,2000.46,2000.96,2001.77,2002.85,2004.39,2004.48,2002.97,2001.6,2000.85,2000.47,2000.27,2000.17,2000.11,2000.08,2000.06,2000.06,2000.16,2000.64,1996.34,2000.52,2000.06,2000.02,2000.01,2000.01,2000.01,2000.01,2000,2000.01,2000.01,2000.01,2000.01,2000.01,2000.01,2000.01,2000.01,2000.01,2000.02,2000.08,2000.07,2000.01,2000.01,2000,2000.01,2000.02,2000.12,2000.04,1999.74,2000.13,2000.03,2000.08,2000.13,2000.01,2000.01,2000.01,2000.01,2000.01,2000.01,2000.01,2000.01,2000,2000,2000,2000,2000,2000,2000,2000,2000,2000,2000,2000,2000,2000,2000,2000,2000,2000,2000,2000.01,2000.01,2000.02,2000.03,2000.03,2000.04,2000.18,2000.03,2000.01,2000.01,2000.1,2000.64,2000.01,2000,2000.01,2000.01,2000.01,2000.02,2000.04,2000.05,2000.04,2000.02,2000.01,2000.01,2000.01,2000.01,2000.01,2000.02,2000.04,2000.13,2001.94,1999.31,2000.26,2000.08,2000.14,2000.48,2000.54,2000.17,2000.09,2000.08,2000.11,2000.11,2000.07,2000.06,2000.08,2000.16,2000.05,2000.04,2000.05,2000.04,2000.03,2000.03,2000.02,2000.02,2000.01,2000.01,2000.01,2000.01,2000.01,2000,2000,2000,2000,2000.02,2000.03,2000,2000,2000,2000,2000,2000,2000,2000,2000,2000,2000,2000,2000,2000,2000,2000,2000,2000,2000,2000,2000,2000,2000,2000,2000.01,2000.03,2000.4,1999.97,2000.07,2000.01,2000.01,2000.01,2000.01,2000.01,2000.01,2000.01,2000.01,2000.01,2000.01,2000.01,2000.01,2000.01,2000.01,2000.04,2000.04,2000.04,2000.04,2000.05,2000.04,2000.04,2000.04,2000.04,2000.07,2000.16,2000.06,2000.05,2000.05,2000.05,2000.05,2000.05,2000.05,2000.05,2000.05,2000.05,2000.05,2000.05,2000.06,2000.06,2000.06,2000.06,2000.06,2000.06,2000.07,2000.07,2000.07,2000.07,2000.08,2000.09,2000.12,2000.14,2000.13,2000.11,2000.1,2000.09,2000.09,2000.09,2000.09,2000.09,2000.1,2000.1,2000.1,2000.1,2000.1,2000.11,2000.11,2000.12,2000.14,2000.13,2000.12,2000.13,2000.14,2000.14,2000.15,2000.14,2000.15,2000.15,2000.15,2000.16,2000.16,2000.16,2000.17,2000.17,2000.18,2000.18,2000.18,2000.19,2000.2,2000.21,2000.25,2000.43,2001.46,2003.79,2000.68,2000.31,2000.24,2000.23,2000.22,2000.22,2000.22,2000.23,2000.23,2000.23,2000.23,2000.24,2000.24,2000.25,2000.25,2000.26,2000.26,2000.26,2000.28,2001.67,2000.67,2000.38,2000.3,2000.27,2000.27,2000.27,2000.27,2000.27,2000.27,2000.27,2000.27,2000.27,2000.27,2000.27,2000.27,2000.27,2000.27,2000.27,2000.27,2000.26,2000.26,2000.26,2000.27,2000.4,2001.11,2000.28,2000.25,2000.25,2000.25,2000.25,2000.24,2000.23,2000.23,2000.23,2000.22,2000.22,2000.22,2000.22,2000.23,2000.25,2000.3,2000.24,2000.22,2000.21,2000.2,2000.2,2000.19,2000.19,2000.18,2000.18,2000.18,2000.18
2000.04,2000.04,2000.04,2000.09,2000.36,2000.05,2000.03,2000.03,2000.06,2000.28,2000.15,2000.04,2000.02,2000.02,2000.06,1998.4,2000.03,2000.02,2000.02,2000.02,2000.02,2000.02,2000.02,2000.02,2000.02,2000.02,2000.02,2000.01,2000.01,2000.02,2000.57,2000.12,2000.01,2000,2000,2000,2000.01,2000.02,2000.1,2000.18,2000.05,2000.01,2000.01,2000.02,2000.07,2000.22,2000.07,2000.03,2000.04,2000.32,1996.55,2000.52,2000.05,2000.03,2000.03,2000.03,2000.03,2000.04,2000.04,2000.05,2000.32,2000.26,2000.05,2000.05,2000.05,2000.05,2000.06,2000.07,2000.08,2000.11,2000.15,2000.21,2000.32,2000.5,2000.76,2001.1,2001.39,2001.39,2001.12,2000.77,2000.5,2000.32,2000.21,2000.14,2000.1,2000.07,2000.06,2000.06,2000.12,2000.87,2001.12,2000.29,2000.06,2000.02,2000.01,2000.01,2000.01,2000.01,2000.01,2000.02,2000.03,2000.04,2000.03,2000.02,2000.01,2000.01,2000.01,2000.01,2000.04,1999.6,2001.04,2000.03,2000.01,2000,2000.01,2000.01,2000.04,2000.14,2000.14,2000.04,2000.01,2000.01,2000.01,2000,2000,2000,2000,2000,2000,2000,2000,2000,2000,2000,2000,2000,2000,2000,2000,2000,2000,2000,2000,2000,2000,2000,2000,2000,2000,2000,2000.01,2000.02,2000.04,2000.08,2000.13,2000.11,2000.06,2000.03,2000.01,2000.01,2000.04,2000.09,2000.01,2000.01,2000.01,2000.02,2000.03,2000.07,2000.17,2000.25,2000.14,2000.05,2000.02,2000.01,2000.02,2000.03,2000.02,2000.02,2000.03,2000.06,2000.15,2000.18,2000.09,2000.08,2000.3,1998.15,1997.27,2000.4,2000.09,2000.08,2000.92,1999.87,2000.08,2000.05,2000.1,2000.48,2000.05,2000.04,2000.04,2000.04,2000.04,2000.04,2000.03,2000.03,2000.02,2000.01,2000.01,2000.01,2000,2000,2000,2000,2000,2000.16,2001.35,2000.01,2000,2000,2000,2000,2000,2000,2000,2000,2000.05,2000.07,2000.01,2000,2000,2000,2000,2000,2000,2000,2000,2000,2000.01,2000.01,2000.01,2000.01,2000.02,2000.04,2000.05,2000.02,2000.01,2000.01,2000.01,2000.01,2000.01,2000.01,2000.01,2000.01,2000.01,2000.01,2000.01,2000.01,2000.01,2000.01,2000.04,2000.04,2000.04,2000.04,2000.04,2000.04,2000.04,2000.04,2000.05,2000.12,1998.01,2000.09,2000.05,2000.05,2000.05,2000.05,2000.05,2000.05,2000.05,2000.05,2000.05,2000.05,2000.06,2000.06,2000.06,2000.06,2000.06,2000.06,2000.07,2000.07,2000.07,2000.07,2000.08,2000.09,2000.12,2000.25,2000.5,2000.38,2000.18,2000.11,2000.1,2000.09,2000.09,2000.09,2000.1,2000.1,2000.1,2000.1,2000.1,2000.11,2000.11,2000.11,2000.13,1999.06,2000.27,2000.13,2000.15,1999.79,2000.15,2000.14,2000.15,2000.15,2000.15,2000.16,2000.16,2000.17,2000.17,2000.18,2000.18,2000.19,2000.19,2000.2,2000.2,2000.21,2000.22,2000.28,2000.69,1997.75,1995.19,2001.71,2000.37,2000.26,2000.24,2000.23,2000.24,2000.23,2000.24,2000.24,2000.24,2000.25,2000.25,2000.26,2000.27,2000.35,2000.39,2000.28,2000.28,2000.29,2000.67,2000.52,1998.54,2000.43,2000.29,2000.28,2000.28,2000.28,2000.29,2000.29,2000.29,2000.29,2000.29,2000.29,2000.29,2000.29,2000.29,2000.29,2000.28,2000.28,2000.28,2000.28,2000.27,2000.28,2000.44,2001.45,2000.29,2000.26,2000.26,2000.29,2000.59,2000.28,2000.25,2000.25,2000.24,2000.23,2000.23,2000.23,2000.23,2000.24,2000.27,2000.39,2000.48,2000.28,2000.24,2000.22,2000.21,2000.2,2000.2,2000.19,2000.19,2000.19,2000.18
2000.04,2000.04,2000.04,2000.13,2000.12,2000.06,2000.03,2000.04,2000.11,1997.73,2000.97,2000.05,2000.02,2000.02,2000.02,2000.03,2000.02,2000.02,2000.02,2000.02,2000.02,2000.02,2000.01,2000.02,2000.02,2000.01,2000.01,2000.01,2000.01,2000.01,2000.09,2000.04,2000.01,2000,2000,2000,2000.01,2000.04,2000.94,1997.36,2000.15,2000.02,2000.01,2000.03,2000.28,1996.8,2000.26,2000.03,2000.03,2000.11,2000.47,2000.14,2000.04,2000.03,2000.03,2000.04,2000.04,2000.05,2000.05,2000.06,2000.33,2000.27,2000.06,2000.05,2000.05,2000.06,2000.06,2000.07,2000.08,2000.09,2000.12,2000.16,2000.22,2000.3,2000.41,2000.53,2000.61,2000.61,2000.53,2000.41,2000.3,2000.21,2000.15,2000.11,2000.08,2000.06,2000.05,2000.04,2000.06,2000.11,2000.14,2000.49,2000.16,2000.02,2000.01,2000.01,2000.01,2000.01,2000.01,2000.04,2000.16,2000.31,2000.13,2000.04,2000.01,2000.01,2000.01,2000.01,2000.02,2000.12,2000.1,2000.02,2000,2000,2000,2000.01,2000.01,2000.02,2000.02,2000.01,2000.01,2000,2000,2000,2000,2000,2000,2000,2000,2000,2000,2000,2000,2000,2000,2000,2000,2000,2000,2000,2000,2000,2000,2000,2000,2000,2000,2000,2000,2000.01,2000.01,2000.03,2000.09,2000.35,2001.03,2000.68,2000.18,2000.05,2000.02,2000.01,2000.01,2000.01,2000.01,2000.01,2000.04,2000.18,2000.06,2000.18,2001.23,2000.19,2000.83,2000.13,2000.04,2000.02,2000.11,1999.8,2000.03,2000.04,2000.04,2000.03,2000.04,2000.04,2000.04,2000.06,2000.22,2001.7,2000.7,2000.28,2000.07,2000.06,2000.21,2000.3,2000.06,2000.04,2000.04,2000.04,2000.04,2000.04,2000.06,2000.08,2000.13,2000.11,2000.11,2000.6,2000.03,2000.01,2000.01,2000.01,2000,2000,2000,2000,2000,2000.01,2000.01,2000,2000,2000,2000,2000,2000,2000,2000,2000.01,2000.39,2001.02,2000.01,2000,2000,2000,2000,2000,2000,2000,2000,2000.01,2000.01,2000.02,2000.03,2000.03,2000.04,2000.07,2000.02,2000.01,2000.01,2000.01,2000.01,2000.01,2000.01,2000.01,2000.01,2000.01,2000.01,2000.01,2000.01,2000.01,2000.01,2000.04,2000.04,2000.04,2000.04,2000.04,2000.04,2000.04,2000.04,2000.04,2000.04,2000.06,2000.08,2000.06,2000.05,2000.05,2000.05,2000.05,2000.05,2000.05,2000.05,2000.05,2000.05,2000.05,2000.06,2000.06,2000.06,2000.06,2000.06,2000.07,2000.08,2000.16,2000.12,2000.08,2000.08,2000.1,2000.18,2000.89,1997.59,2001.2,2000.34,2000.13,2000.1,2000.09,2000.1,2000.11,2000.16,2000.15,2000.11,2000.11,2000.11,2000.11,2000.11,2000.11,2000.12,2000.16,2000.14,2000.13,2000.15,2000.22,2000.15,2000.15,2000.15,2000.16,2000.16,2000.16,2000.17,2000.18,2000.18,2000.19,2000.19,2000.2,2000.2,2000.21,2000.21,2000.22,2000.24,2000.28,2000.53,2002.48,1999.52,2000.97,2000.35,2000.27,2000.25,2000.24,2000.25,2000.25,2000.25,2000.25,2000.25,2000.26,2000.28,2000.59,2000.31,2000.66,2002.04,2000.73,2000.32,2000.3,2000.36,2001.86,2000.41,2000.32,2000.3,2000.3,2000.3,2000.3,2000.3,2000.31,2000.32,2000.34,2000.33,2000.32,2000.32,2000.32,2000.32,2000.31,2000.3,2000.3,2000.29,2000.29,2000.29,2000.29,2000.29,2000.3,2000.28,2000.27,2000.27,2000.35,1998.91,2000.32,2000.37,2000.85,2000.26,2000.25,2000.24,2000.24,2000.25,2000.28,2000.36,2000.81,2001.42,2000.46,2000.28,2000.24,2000.22,2000.21,2000.21,2000.2,2000.2,2000.19,2000.19
2000.05,2000.04,2000.04,2000.05,2000.05,2000.04,2000.03,2000.04,2000.06,2000.19,2000.12,2000.04,2000.02,2000.02,2000.02,2000.02,2000.02,2000.02,2000.02,2000.02,2000.03,2000.03,2000.03,2000.03,2000.03,2000.02,2000.02,2000.02,2000.01,2000.01,2000.01,2000.01,2000,2000,2000,2000,2000.01,2000.03,2000.22,2000.65,2000.08,2000.02,2000.01,2000.02,2000.08,2000.33,2000.08,2000.03,2000.02,2000.04,2000.05,2000.04,2000.04,2000.04,2000.04,2000.05,2000.05,2000.06,2000.07,2000.07,2000.08,2000.07,2000.07,2000.06,2000.06,2000.1,2000.56,2000.08,2000.07,2000.08,2000.1,2000.12,2000.16,2000.2,2000.25,2000.29,2000.32,2000.32,2000.29,2000.24,2000.19,2000.15,2000.11,2000.08,2000.06,2000.05,2000.04,2000.04,2000.03,2000.04,2000.05,2000.26,2000.11,2000.02,2000.01,2000.01,2000.01,2000.01,2000.02,2000.1,2001.34,1997.11,2000.73,2000.07,2000.02,2000.01,2000,2000.01,2000.02,2000.02,2000.01,2000.01,2000,2000,2000,2000,2000.01,2000.01,2000.01,2000,2000,2000,2000,2000,2000,2000.01,2000.01,2000.01,2000.01,2000,2000,2000,2000,2000,2000,2000,2000,2000,2000,2000,2000,2000,2000,2000,2000,2000,2000,2000,2000,2000.01,2000.01,2000.04,2000.17,2001.49,1995.71,1998.65,2000.45,2000.08,2000.02,2000.01,2000.01,2000.01,2000.01,2000.01,2000.03,2000.12,2000.07,2000.28,1999.94,1994.8,1999.06,2000.21,2000.04,2000.02,2000.02,2000.04,2000.09,2000.26,2000.15,2000.05,2000.03,2000.02,2000.03,2000.04,2000.08,2000.18,2000.19,2000.09,2000.05,2000.04,2000.04,2000.04,2000.03,2000.03,2000.03,2000.03,2000.04,2000.07,2000.12,2000.25,2001.53,2001.24,2000.16,2000.23,2000.03,2000.01,2000.01,2000,2000,2000,2000,2000,2000,2000,2000,2000,2000,2000,2000,2000,2000,2000,2000,2000,2000.02,2000.02,2000,2000,2000,2000,2000,2000,2000,2000,2000.01,2000.01,2000.04,2000.1,2000.17,2000.11,2000.13,1998.14,2000.04,2000.01,2000.01,2000.01,2000.01,2000.01,2000.01,2000.01,2000.01,2000.01,2000.01,2000.01,2000.01,2000.01,2000.01,2000.04,2000.04,2000.04,2000.04,2000.04,2000.04,2000.04,2000.04,2000.04,2000.05,2000.05,2000.05,2000.06,2000.07,2000.06,2000.06,2000.05,2000.05,2000.05,2000.05,2000.05,2000.05,2000.06,2000.06,2000.06,2000.06,2000.06,2000.06,2000.07,2000.1,1998.9,2000.51,2000.09,2000.08,2000.1,2000.19,2001.13,1996.09,1999.6,2000.69,2000.15,2000.1,2000.1,2000.1,2000.13,1999.81,2001.71,2000.13,2000.12,2000.13,2000.22,2000.13,2000.12,2000.12,2000.13,2000.13,2000.14,2000.14,2000.15,2000.15,2000.15,2000.16,2000.16,2000.17,2000.17,2000.18,2000.19,2000.19,2000.2,2000.2,2000.21,2000.22,2000.22,2000.24,2000.25,2000.25,2000.27,2000.34,2000.51,2000.58,2000.4,2000.3,2000.27,2000.26,2000.25,2000.26,2000.26,2000.26,2000.26,2000.27,2000.27,2000.3,2000.47,2000.34,2000.32,2000.38,1999.58,2000.35,2000.31,2000.37,1999.99,2000.4,2000.32,2000.31,2000.31,2000.31,2000.31,2000.32,2000.33,2000.4,2001.83,2000.64,2000.36,2000.38,2000.44,2000.44,2000.36,2000.33,2000.32,2000.31,2000.31,2000.3,2000.3,2000.3,2000.29,2000.29,2000.29,2000.28,2000.29,2000.3,2000.28,2000.36,2000.61,2000.27,2000.26,2000.25,2000.26,2000.28,2000.35,2000.67,2001.99,2003.27,2000.79,2000.36,2000.26,2000.23,2000.22,2000.22,2000.21,2000.21,2000.2,2000.2
2000.05,2000.05,2000.05,2000.05,2000.04,2000.04,2000.04,2000.04,2000.04,2000.04,2000.04,2000.03,2000.03,2000.02,2000.02,2000.02,2000.02,2000.02,2000.02,2000.03,2000.04,2000.04,2000.05,2000.05,2000.05,2000.05,2000.04,2000.03,2000.02,2000.01,2000.01,2000.01,2000.01,2000,2000,2000,2000,2000.01,2000.03,2000.04,2000.03,2000.02,2000.01,2000.01,2000.02,2000.03,2000.03,2000.02,2000.02,2000.03,2000.03,2000.04,2000.04,2000.05,2000.05,2000.06,2000.07,2000.09,2000.11,2000.11,2000.1,2000.09,2000.08,2000.07,2000.07,2000.11,2000.45,2000.08,2000.07,2000.07,2000.08,2000.1,2000.12,2000.14,2000.16,2000.18,2000.19,2000.19,2000.18,2000.15,2000.13,2000.1,2000.08,2000.07,2000.05,2000.04,2000.03,2000.03,2000.03,2000.02,2000.02,2000.02,2000.02,2000.01,2000.01,2000.01,2000.01,2000.01,2000.02,2000.1,2001.21,1997.54,2000.67,2000.07,2000.02,2000.01,2000,2000.01,2000.18,2001.46,2000.01,2000,2000,2000.01,2000.01,2000,2000,2000,2000,2000,2000,2000,2000,2000,2000,2000.04,2000.15,2000.08,2000.08,2000.01,2000,2000,2000,2000,2000,2000,2000,2000,2000,2000,2000,2000.01,2000.01,2000.02,2000.01,2000.01,2000,2000,2000,2000.01,2000.01,2000.04,2000.16,2001.3,1996.44,1999.44,2000.42,2000.08,2000.02,2000.01,2000.01,2000.01,2000.01,2000.02,2000.04,2000.07,2000.09,2000.23,2000.93,2002.63,2000.76,2000.13,2000.04,2000.02,2000.02,2000.04,2000.36,1997.05,2001.34,2000.08,2000.02,2000.02,2000.02,2000.22,2000.38,2000.05,2000.05,2000.04,2000.03,2000.03,2000.03,2000.03,2000.03,2000.03,2000.03,2000.05,2000.16,2000.13,2000.71,2001.14,1999.08,2000.86,2000.18,2000.06,2000.03,2000.01,2000.01,2000,2000,2000,2000,2000,2000,2000,2000,2000,2000,2000,2000,2000,2000,2000,2000,2000,2000,2000,2000,2000,2000,2000,2000,2000,2000,2000,2000.01,2000.02,2000.09,2000.69,1999.97,2000.66,2000.11,2000.07,2000.02,2000.01,2000.01,2000.01,2000.01,2000.01,2000.01,2000.01,2000.02,2000.02,2000.02,2000.02,2000.02,2000.02,2000.04,2000.04,2000.04,2000.08,2000.14,2000.05,2000.04,2000.04,2000.04,2000.04,2000.05,2000.16,2000.09,2000.09,1998.37,2000.18,2000.08,2000.06,2000.06,2000.06,2000.05,2000.05,2000.06,2000.06,2000.06,2000.06,2000.06,2000.06,2000.06,2000.07,2000.18,2000.29,2000.11,2000.08,2000.08,2000.1,2000.14,2000.33,2000.87,2000.74,2000.93,2000.14,2000.1,2000.1,2000.1,2000.11,2000.22,2000.22,2000.2,2000.16,2000.16,1998.37,2000.17,2000.12,2000.12,2000.13,2000.14,2000.14,2000.15,2000.15,2000.16,2000.17,2000.17,2000.17,2000.18,2000.18,2000.19,2000.2,2000.21,2000.21,2000.22,2000.22,2000.23,2000.25,2000.31,2000.39,2000.32,2000.28,2000.28,2000.3,2000.31,2000.29,2000.28,2000.27,2000.26,2000.27,2000.27,2000.27,2000.28,2000.28,2000.29,2000.29,2000.3,2000.31,2000.37,2000.88,2000.34,2000.33,2000.32,2000.32,2000.33,2000.35,2000.34,2000.33,2000.33,2000.33,2000.33,2000.33,2000.33,2000.35,2000.45,1998.91,2000.91,2000.4,2000.55,2003.26,2001.94,2000.52,2000.37,2000.34,2000.33,2000.32,2000.32,2000.31,2000.31,2000.31,2000.3,2000.3,2000.3,2000.29,2000.29,2000.29,2000.29,2000.28,2000.27,2000.27,2000.27,2000.27,2000.3,2000.56,2001.49,1996.17,1995.69,2001.75,2000.44,2000.29,2000.25,2000.24,2000.23,2000.23,2000.22,2000.22,2000.21
2000.06,2000.06,2000.05,2000.05,2000.05,2000.04,2000.04,2000.04,2000.04,2000.03,2000.03,2000.03,2000.03,2000.02,2000.02,2000.02,2000.02,2000.03,2000.03,2000.04,2000.05,2000.08,2000.11,2000.13,2000.12,2000.1,2000.07,2000.06,2000.04,2000.02,2000.01,2000.01,2000.01,2000.01,2000,2000,2000,2000.01,2000.01,2000.06,2000.35,2000.04,2000.01,2000.01,2000.02,2000.02,2000.02,2000.02,2000.02,2000.03,2000.03,2000.04,2000.05,2000.06,2000.07,2000.09,2000.11,2000.19,2000.4,2000.27,2000.15,2000.12,2000.11,2000.09,2000.08,2000.08,2000.07,2000.07,2000.06,2000.07,2000.07,2000.08,2000.11,2000.11,2000.11,2000.12,2000.12,2000.12,2000.12,2000.1,2000.09,2000.07,2000.06,2000.05,2000.04,2000.03,2000.03,2000.02,2000.02,2000.02,2000.02,2000.01,2000.01,2000.01,2000.01,2000.01,2000,2000.01,2000.01,2000.04,2000.15,2000.27,2000.12,2000.03,2000.01,2000.01,2000,2000.01,2000.05,2000.11,2000.01,2000,2000.01,2000.07,2000.02,2000.01,2000.01,2000,2000,2000,2000,2000,2000,2000,2000.01,2000.08,2000.21,2000.24,2000.3,2000.02,2000.01,2000,2000,2000.01,2000.01,2000,2000,2000,2000,2000,2000,2000.01,2000.09,2000.42,2000.09,2000.01,2000,2000,2000,2000.01,2000.01,2000.03,2000.08,2000.29,2000.75,2000.52,2000.16,2000.05,2000.02,2000.01,2000.01,2000.01,2000.01,2000.05,2000.36,2000.12,2000.26,2001.06,2000.96,2000.3,2000.14,2000.06,2000.02,2000.01,2000.01,2000.03,2000.23,2000.27,2000.63,2000.06,2000.02,2000.02,2000.02,2000.05,2000.06,2000.02,2000.02,2000.02,2000.02,2000.02,2000.02,2000.02,2000.02,2000.03,2000.04,2000.06,1999.38,2000.24,2001.6,1996.77,2000.91,2001.22,2000.29,2000.07,2000.03,2000.01,2000.01,2000,2000,2000,2000,2000,2000,2000,2000,2000.01,2000,2000,2000,2000,2000,2000,2000,2000,2000,2000,2000,2000,2000,2000,2000,2000,2000,2000,2000.01,2000.02,2000.12,2003.1,1995.48,2001.66,2000.19,2000.04,2000.02,2000.02,2000.01,2000.01,2000.01,2000.01,2000.02,2000.02,2000.03,2000.03,2000.04,2000.04,2000.04,2000.03,2000.05,2000.05,2000.05,2000.16,2000.21,2000.05,2000.04,2000.04,2000.04,2000.05,2000.06,2000.69,2000.18,2000.09,2000.66,1998.08,2000.17,2000.07,2000.28,2000.17,2000.06,2000.06,2000.06,2000.06,2000.06,2000.06,2000.06,2000.06,2000.07,2000.07,2000.18,2000.26,2000.08,2000.08,2000.08,2000.09,2000.11,2000.14,2000.18,2000.17,2000.14,2000.11,2000.1,2000.1,2000.1,2000.11,2000.12,2000.25,1998.35,2000.57,2000.15,2000.14,2000.13,2000.13,2000.13,2000.14,2000.14,2000.15,2000.16,2000.17,2000.18,2000.19,2000.19,2000.19,2000.19,2000.2,2000.2,2000.22,2000.46,2000.26,2000.24,2000.24,2000.26,2000.3,2000.8,1998.3,2000.7,2000.31,2000.28,2000.28,2000.28,2000.28,2000.28,2000.27,2000.28,2000.28,2000.28,2000.29,2000.29,2000.31,2000.42,2000.38,2000.33,2000.32,2000.37,1998.91,2000.36,2000.33,2000.33,2000.33,2000.34,2000.34,2000.34,2000.34,2000.35,2000.35,2000.35,2000.35,2000.35,2000.36,2000.38,2000.44,2000.42,2000.41,2000.74,1997.21,1997.7,2000.68,2000.41,2000.37,2000.35,2000.34,2000.33,2000.33,2000.33,2000.33,2000.32,2000.31,2000.31,2000.31,2000.3,2000.3,2000.29,2000.29,2000.28,2000.28,2000.28,2000.29,2000.32,2000.82,2001.3,1997.63,1997.13,2001.45,2000.43,2000.3,2000.27,2000.26,2000.28,2000.28,2000.26,2000.24,2000.22
2000.07,2000.07,2000.06,2000.06,2000.05,2000.05,2000.04,2000.04,2000.04,2000.04,2000.03,2000.03,2000.03,2000.03,2000.03,2000.02,2000.03,2000.03,2000.04,2000.05,2000.09,2000.15,2000.26,2000.35,2000.34,2000.24,2000.16,2000.58,2000.12,2000.04,2000.02,2000.01,2000.01,2000.01,2000.01,2000,2000,2000,2000.01,2000.12,1998.6,2000.06,2000.02,2000.02,2000.04,2000.05,2000.03,2000.02,2000.03,2000.03,2000.04,2000.06,2000.09,2000.09,2000.1,2000.12,2000.17,2000.49,1997.26,2002.68,2000.25,2000.18,2000.15,2000.12,2000.11,2000.09,2000.08,2000.07,2000.07,2000.06,2000.06,2000.07,1999.99,2000.17,2000.08,2000.09,2000.09,2000.09,2000.08,2000.07,2000.07,2000.06,2000.05,2000.04,2000.03,2000.03,2000.02,2000.02,2000.02,2000.02,2000.01,2000.01,2000.01,2000.01,2000.01,2000.01,2000,2000.01,2000.01,2000.02,2000.03,2000.04,2000.03,2000.02,2000.01,2000.01,2000.01,2000.01,2000.01,2000.01,2000,2000,2000.02,1999.13,2000.15,2000.06,2000.02,2000.01,2000,2000,2000,2000,2000,2000,2000.01,2000.02,2000.03,2000.06,2000.06,2000.04,2000.02,2000.01,2000.01,2000.23,2000.09,2000,2000,2000,2000,2000,2000,2000.02,2000.28,1996.7,2000.33,2000.02,2000.01,2000,2000,2000.01,2000.01,2000.02,2000.03,2000.07,2000.11,2000.09,2000.05,2000.02,2000.01,2000.01,2000,2000,2000.01,2000.09,1997.96,2000.19,2000.42,1996.96,1997.84,2000.27,2000.06,2000.03,2000.01,2000.01,2000.01,2000.02,2000.05,2000.1,2000.07,2000.03,2000.02,2000.01,2000.01,2000.01,2000.02,2000.01,2000.02,2000.02,2000.01,2000.02,2000.02,2000.02,2000.03,2000.07,2000.12,2000.07,2000.08,2000.24,2003.93,1995.16,2001.43,1996.23,2000.73,2000.09,2000.03,2000.01,2000.01,2000,2000,2000,2000,2000,2000,2000,2000.03,2000.6,2000.02,2000.01,2000.01,2000.03,2000.01,2000,2000,2000,2000,2000,2000,2000,2000,2000,2000,2000,2000,2000,2000.01,2000.03,2000.08,2000.32,2000.91,2000.35,1998.93,2000.05,2000.06,2000.05,2000.02,2000.01,2000.01,2000.02,2000.02,2000.03,2000.04,2000.06,2000.08,2000.08,2000.07,2000.08,2000.07,2000.06,2000.05,2000.05,2000.06,2000.05,2000.05,2000.05,2000.05,2000.05,2000.05,2000.06,2000.06,2000.07,2000.26,2000.95,2000.12,2000.07,2000.12,2000.1,2000.06,2000.06,2000.06,2000.06,2000.06,2000.06,2000.06,2000.06,2000.07,2000.07,2000.08,2000.08,2000.08,2000.08,2000.08,2000.09,2000.09,2000.1,2000.11,2000.11,2000.11,2000.1,2000.1,2000.1,2000.1,2000.11,2000.12,2000.22,2001.44,2000.38,2000.14,2000.13,2000.13,2000.13,2000.13,2000.14,2000.15,2000.15,2000.18,2000.26,2000.31,2000.38,2000.27,2000.22,2000.34,2000.23,2000.22,2000.23,2000.42,2000.28,2000.26,2000.27,2000.28,2000.32,2000.81,1998.47,2000.71,2000.32,2000.29,2000.29,2000.29,2000.28,2000.29,2000.29,2000.29,2000.29,2000.3,2000.3,2000.31,2000.34,2000.99,2000.74,2000.74,2000.38,2000.34,2000.35,2000.34,2000.34,2000.35,2000.35,2000.35,2000.36,2000.36,2000.36,2000.36,2000.37,2000.37,2000.37,2000.37,2000.38,2000.38,2000.39,2000.4,2000.42,2000.56,2001.23,2001.15,2000.58,2000.53,2000.44,2000.38,2000.36,2000.36,2000.35,2000.35,2000.74,2000.36,2000.33,2000.32,2000.32,2000.32,2000.31,2000.31,2000.3,2000.3,2000.29,2000.29,2000.3,2000.32,2000.38,2000.58,2001.13,2001.19,2000.6,2000.36,2000.3,2000.29,2000.33,2000.54,2000.74,2000.39,2000.27,2000.25
2000.09,2000.08,2000.07,2000.07,2000.06,2000.05,2000.05,2000.05,2000.04,2000.04,2000.04,2000.03,2000.03,2000.03,2000.03,2000.03,2000.03,2000.03,2000.05,2000.08,2000.15,2000.33,2000.8,2001.51,2001.42,2000.71,2000.33,2001.8,2000.18,2000.07,2000.04,2000.03,2000.03,2000.02,2000.01,2000,2000,2000,2000.01,2000.02,2000.04,2000.02,2000.01,2000.02,2000.41,1999.82,2000.04,2000.03,2000.03,2000.04,2000.05,2000.15,2002.17,2000.27,2000.14,2000.17,2000.23,2000.46,2001.09,2000.93,2000.35,2000.27,2000.22,2000.18,2000.14,2000.11,2000.09,2000.08,2000.07,2000.07,2000.06,2000.06,2000.07,2000.07,2000.07,2000.07,2000.08,2000.07,2000.07,2000.07,2000.05,2000.04,2000.04,2000.03,2000.03,2000.02,2000.02,2000.02,2000.02,2000.01,2000.01,2000.01,2000.01,2000.01,2000.01,2000,2000,2000.01,2000.02,2000.08,2000.04,2000.02,2000.01,2000.01,2000.01,2000.01,2000.01,2000.02,2000.02,2000.01,2000,2000,2000.01,2000.13,1997.48,2000.52,2000.16,2000.02,2000,2000,2000,2000,2000,2000,2000.01,2000.02,2000.08,2001.73,2000.52,2000.21,2000.05,2000.01,2000.01,2000.07,2000.04,2000,2000,2000,2000,2000,2000,2000.01,2000.07,2000.23,2000.07,2000.01,2000.01,2000,2000,2000.01,2000.01,2000.01,2000.02,2000.02,2000.03,2000.03,2000.02,2000.01,2000.01,2000,2000,2000,2000.01,2000.03,2000.07,2000.08,2000.17,2000.93,2000.78,2000.13,2000.04,2000.02,2000.01,2000.01,2000.01,2000.01,2000.01,2000.02,2000.01,2000.01,2000.01,2000.01,2000.01,2000.01,2000.01,2000.01,2000.01,2000.01,2000.01,2000.01,2000.01,2000.02,2000.05,2000.5,1998.69,2000.23,2000.07,2000.14,2000.52,2001.57,2001.49,2002.17,2000.51,2000.11,2000.03,2000.01,2000.01,2000,2000,2000,2000,2000,2000,2000,2000.02,2000.24,2000.02,2000.01,2000.13,1999.82,2000.05,2000.01,2000,2000,2000,2000,2000,2000,2000,2000,2000,2000,2000,2000,2000.02,2000.26,2000.33,2000.07,2000.08,2000.06,2000.05,2000.06,2000.96,2001.63,2000.04,2000.02,2000.02,2000.02,2000.03,2000.05,2000.08,2000.14,2000.2,2000.23,2000.21,2000.14,2000.1,2000.07,2000.06,2000.05,2000.05,2000.05,2000.08,2000.41,2000.06,2000.05,2000.05,2000.05,2000.05,2000.06,2000.07,2000.08,2000.07,2000.06,2000.06,2000.06,2000.06,2000.06,2000.06,2000.06,2000.06,2000.06,2000.06,2000.07,2000.07,2000.07,2000.07,2000.08,2000.08,2000.08,2000.09,2000.09,2000.09,2000.09,2000.09,2000.1,2000.1,2000.1,2000.1,2000.1,2000.1,2000.11,2000.12,2000.31,2000.43,2000.15,2000.13,2000.13,2000.13,2000.13,2000.14,2000.14,2000.15,2000.16,2000.21,1999.82,2001.57,1998.87,2000.63,2000.27,2000.12,2000.27,2000.23,2000.25,2000.26,2000.28,2000.3,2000.31,2000.32,2000.34,2000.39,2000.46,2000.38,2000.34,2000.32,2000.3,2000.3,2000.3,2000.3,2000.3,2000.3,2000.31,2000.31,2000.32,2000.33,2000.74,2000.72,2001.5,1997.91,2000.45,2000.36,2000.36,2000.36,2000.36,2000.37,2000.37,2000.37,2000.38,2000.38,2000.38,2000.39,2000.39,2000.39,2000.39,2000.4,2000.41,2000.42,2000.41,2000.43,2000.44,2000.45,2000.81,2000.53,2001.02,1999.35,2000.82,2000.43,2000.39,2000.38,2000.37,2000.37,2000.53,2000.37,2000.35,2000.34,2000.34,2000.33,2000.33,2000.32,2000.32,2000.31,2000.31,2000.31,2000.32,1998.93,2000.37,2000.38,2000.43,2000.44,2000.38,2000.33,2000.31,2000.33,2000.48,2000.94,1996.7,2000.89,2000.31,2000.26
2000.1,2000.09,2000.08,2000.08,2000.07,2000.06,2000.06,2000.05,2000.05,2000.05,2000.04,2000.04,2000.03,2000.03,2000.03,2000.03,2000.03,2000.04,2000.05,2000.1,2000.22,2000.7,2005.92,1997.47,1998.15,2002.43,2000.7,2000.54,2000.43,2000.18,2000.07,2000.07,2000.23,2000.1,2000.02,2000.01,2000,2000,2000,2000.01,2000.01,2000.01,2000.01,2000.02,2000.12,2000.24,2000.04,2000.04,2000.04,2000.04,2000.06,2000.21,1998.14,2000.45,2000.19,2000.25,2000.34,2000.47,2000.62,2000.68,2000.58,2000.45,2000.35,2000.26,2000.19,2000.14,2000.11,2000.09,2000.08,2000.21,2000.08,2000.06,2000.05,2000.05,2000.06,2000.11,2000.92,2000.11,2000.1,2000.13,2000.07,2000.04,2000.03,2000.03,2000.02,2000.02,2000.02,2000.02,2000.01,2000.01,2000.01,2000.01,2000.01,2000.03,2000.03,2000.01,2000,2000.01,2000.07,1997.58,2000.18,2000.02,2000.01,2000.01,2000.01,2000.01,2000.09,2000.39,1999.11,2000.03,2000.01,2000,2000.01,2000.06,2000.5,2000.25,1998.77,2000.03,2000,2000,2000,2000,2000,2000,2000.01,2000.02,2000.11,2001.61,1996.11,2001.37,2000.09,2000.02,2000.01,2000.01,2000,2000,2000,2000,2000,2000,2000,2000.01,2000.02,2000.02,2000.01,2000.01,2000.01,2000.01,2000.01,2000.15,2000.35,2000.01,2000.01,2000.01,2000.01,2000.01,2000.01,2000.01,2000,2000,2000,2000,2000,2000.01,2000.02,2000.03,2000.05,2000.08,2000.08,2000.04,2000.02,2000.02,2000.01,2000.01,2000.01,2000.01,2000.01,2000.01,2000.01,2000,2000,2000.01,2000.01,2000.01,2000.01,2000.01,2000.01,2000.01,2000.01,2000.02,2000.02,2000.02,2000.04,2000.47,1999.04,2000.22,2000.05,2000.07,2000.13,2000.2,2000.22,2000.29,2000.11,2000.6,2000.02,2000.01,2000.01,2000,2000,2000,2000,2000,2000,2000,2000,2000.01,2000,2000.01,2000.1,2000.81,2000.04,2000.01,2000,2000,2000,2000,2000,2000,2000,2000,2000,2000,2000,2000,2000.02,2000.53,2000.73,2000.03,2000.02,2000.02,2000.02,2000.04,2000.43,2000.38,2000.03,2000.02,2000.02,2000.04,2000.09,2000.08,2000.15,2000.44,2000.88,2000.95,2000.64,2000.3,2000.15,2000.09,2000.06,2000.05,2000.05,2000.05,2000.1,2000.54,2000.07,2000.05,2000.05,2000.05,2000.05,2000.05,2000.06,2000.06,2000.06,2000.06,2000.06,2000.06,2000.06,2000.06,2000.07,2000.08,2000.07,2000.06,2000.07,2000.07,2000.07,2000.07,2000.07,2000.08,2000.09,2000.13,2000.16,2000.1,2000.09,2000.09,2000.09,2000.09,2000.1,2000.1,2000.1,2000.1,2000.11,2000.11,2000.12,2000.28,2000.36,2000.13,2000.13,2000.13,2000.13,2000.13,2000.14,2000.15,2000.15,2000.16,2000.19,2000.31,2001.61,1996.83,2000.81,2000.27,2000.24,2000.24,2000.25,2000.27,2000.3,2000.32,2000.35,2000.38,2000.39,2000.4,2000.4,2000.39,2000.38,2000.94,2000.51,2000.33,2000.32,2000.31,2000.31,2000.32,2000.32,2000.32,2000.32,2000.33,2000.34,2000.39,2000.4,2000.46,2000.53,2000.4,2000.37,2000.38,2000.4,2000.39,2000.39,2000.39,2000.39,2000.4,2000.4,2000.4,2000.41,2000.41,2000.41,2000.42,2000.43,2000.65,2002.24,2000.47,1999.48,2000.6,2000.5,2000.49,2000.5,2001.31,1997.38,2001.01,2000.45,2000.41,2000.4,2000.39,2000.39,2000.38,2000.37,2000.37,2000.36,2000.36,2000.35,2000.34,2000.34,2000.33,2000.33,2000.34,2000.74,2000.34,2000.37,2000.34,2000.34,2000.36,2000.37,2000.37,2000.35,2000.33,2000.58,1998.5,2001.84,1999.23,2000.71,2000.33,2000.28
2000.12,2000.11,2000.1,2000.09,2000.08,2000.07,2000.06,2000.06,2000.07,2000.09,2000.06,2000.04,2000.04,2000.03,2000.03,2000.03,2000.03,2000.04,2000.06,2000.11,2000.28,2001.05,1999.62,1992.16,1992.77,2001.78,2001.54,1998.14,1997.39,2000.86,2000.11,2000.21,1996.99,2000.76,2000.04,2000.01,2000,2000,2000,2000.01,2000.01,2000.01,2000.01,2000.02,2000.11,2000.44,2000.04,1998.61,2000.08,2000.05,2000.07,2000.11,2000.19,2000.2,2000.25,2000.37,2000.56,2000.83,2001.14,1999.65,2001.46,2000.87,2000.59,2000.39,2000.26,2000.18,2000.13,2000.1,2000.1,1999.13,2000.11,2000.05,2000.05,2000.05,2000.05,2000.11,1999.8,2000.13,2000.49,1998.53,2000.18,2000.04,2000.03,2000.02,2000.02,2000.02,2000.02,2000.01,2000.01,2000.01,2000.01,2000.01,2000.02,2000.54,2001.61,2000.01,2000,2000.01,2000.03,2000.14,2000.05,2000.02,2000.02,2000.02,2000.02,2000.02,2000.09,2000.35,2000.16,2000.02,2000.01,2000,2000.01,2000.01,2000.03,2000.03,2000.03,2000.01,2000,2000,2000,2000,2000,2000,2000.01,2000.02,2000.07,2000.58,1999.23,2000.7,2000.08,2000.02,2000.01,2000,2000,2000,2000,2000,2000,2000,2000.01,2000.07,2000.17,2000.02,2000.01,2000.02,2000.07,2000.03,2000.01,2000.06,2000.09,2000.01,2000,2000,2000,2000,2000,2000,2000,2000,2000,2000,2000,2000,2000.01,2000.03,2000.6,2000.04,2000.02,2000.02,2000.03,2000.06,2000.05,2000.02,2000.01,2000.01,2000,2000,2000,2000,2000.01,2000.01,2000.01,2000.02,2000.02,2000.01,2000.01,2000.01,2000.03,2000.49,2000.04,2000.02,2000.02,2000.06,2000.1,2000.05,2000.03,2000.03,2000.05,2000.06,2000.06,2000.1,1998.69,2000.05,2000.02,2000.01,2000.01,2000.01,2000.01,2000,2000,2000,2000,2000,2000,2000,2000,2000,2000.01,2000.02,2000.02,2000.02,2000.01,2000,2000,2000,2000,2000,2000,2000,2000,2000,2000,2000,2000.01,2000.02,2000.03,2000.01,2000.01,2000.01,2000.01,2000.02,2000.03,2000.03,2000.02,2000.02,2000.02,2000.08,1997.9,2000.14,2000.27,2001.02,2002.57,1999.03,2005.35,2000.7,2000.23,2000.11,2000.07,2000.06,2000.08,2000.06,2000.05,2000.06,2000.05,2000.05,2000.05,2000.05,2000.05,2000.05,2000.06,2000.06,2000.07,2000.07,2000.07,2000.07,2000.07,2000.07,2000.25,2000.83,2000.08,2000.07,2000.07,2000.07,2000.07,2000.08,2000.08,2000.08,2000.1,2000.6,1998.17,2000.15,2000.09,2000.09,2000.09,2000.09,2000.1,2000.1,2000.1,2000.11,2000.11,2000.12,2000.13,2000.14,2000.13,2000.13,2000.13,2000.13,2000.13,2000.14,2000.15,2000.15,2000.16,2000.17,2000.19,2000.24,2000.43,2000.61,2000.34,2000.25,2000.24,2000.25,2000.28,2000.31,2000.35,2000.4,2000.45,2000.49,2000.52,2000.51,2000.49,2000.45,2000.43,2000.71,2000.49,2000.35,2000.34,2000.33,2000.33,2000.33,2000.33,2000.34,2000.34,2000.35,2000.35,2000.36,2000.37,2000.38,2000.39,2000.39,2000.39,2000.41,1999.27,2000.49,2000.41,2000.41,2000.41,2000.42,2000.42,2000.43,2000.43,2000.43,2000.44,2000.44,2000.45,2000.61,2000.92,2000.48,2000.57,2000.49,2000.46,2000.46,2000.47,2000.56,2000.7,2000.54,2000.45,2000.43,2000.42,2000.41,2000.41,2000.4,2000.39,2000.39,2000.38,2000.38,2000.37,2000.36,2000.36,2000.35,2000.34,2000.36,2001.84,2000.36,2000.34,2000.34,2000.35,2000.37,2000.44,2000.53,2000.5,2000.4,2000.4,2000.51,2000.46,2000.51,2000.4,2000.33,2000.3
2000.14,2000.13,2000.11,2000.1,2000.09,2000.08,2000.07,2000.07,2000.19,1998.6,2000.16,2000.05,2000.04,2000.03,2000.03,2000.03,2000.03,2000.04,2000.06,2000.11,2000.25,2000.85,2002.61,1994.72,1995.36,2004.94,2001.32,1998.66,1998.59,2000.7,2000.1,2000.11,2000.59,2000.18,2000.03,2000.01,2000,2000,2000,2000.01,2000.01,2000.01,2000.01,2000.01,2000.02,2000.03,2000.03,2000.05,2000.05,2000.07,2000.07,2000.1,2000.15,2000.22,2000.34,2000.57,2001.01,2001.8,2002.94,2003.74,2003.1,2001.92,2001.08,2000.61,2000.36,2000.23,2000.15,2000.11,2000.09,2000.08,2000.06,2000.05,2000.04,2000.04,2000.04,2000.05,2000.06,2000.07,2000.34,2000.49,2000.14,2000.03,2000.02,2000.02,2000.02,2000.02,2000.05,2000.03,2000.01,2000.01,2000.01,2000.01,2000.01,2000.04,2000.04,2000.01,2000,2000.01,2000.01,2000.02,2000.02,2000.03,2000.04,2000.05,2000.05,2000.04,2000.03,2000.03,2000.02,2000.01,2000.01,2000,2000,2000.01,2000.01,2000.01,2000,2000,2000,2000,2000,2000,2000,2000,2000.01,2000.01,2000.03,2000.09,2000.17,2000.1,2000.03,2000.01,2000,2000,2000,2000,2000,2000,2000,2000,2000.01,2000.24,2000.02,2000.02,2000.01,2000.04,1998.17,2000.26,2000.01,2000.01,2000.01,2000,2000,2000,2000,2000,2000,2000,2000,2000,2000,2000,2000,2000,2000,2000.02,2000.28,2000.02,2000.01,2000.02,2000.08,2001.19,2000.68,2000.04,2000.01,2000.01,2000.01,2000.01,2000.01,2000.01,2000.01,2000.05,2000.09,2000.38,2000.14,2000.02,2000.01,2000.01,2000.11,1998.19,2000.07,2000.02,2000.02,2000.02,2000.02,2000.02,2000.02,2000.01,2000.02,2000.02,2000.02,2000.03,2000.04,2000.02,2000.02,2000.01,2000.01,2000.02,2000.04,2000.02,2000.01,2000,2000,2000,2000,2000,2000,2000,2000.01,2000.02,2000.05,2000.27,2000.3,2000.02,2000,2000,2000,2000,2000,2000,2000,2000,2000,2000,2000,2000,2000,2000,2000,2000.01,2000.02,2000.03,2000.01,2000.01,2000.01,2000.01,2000.03,2000.55,2000.26,2000.13,2000.38,2002.02,1995.33,1992.35,1997.72,2001.22,2000.3,2000.12,2000.08,2000.08,1998.24,2000.09,2000.05,2000.06,2000.09,2000.09,2000.06,2000.05,2000.05,2000.06,2000.06,2000.08,2000.1,2000.1,2000.09,2000.08,2000.07,2000.07,2000.21,2000.54,2000.08,2000.07,2000.07,2000.07,2000.08,2000.03,2000.15,2000.08,2000.09,2000.2,2000.4,2000.12,2000.09,2000.09,2000.09,2000.1,2000.1,2000.1,2000.1,2000.11,2000.12,2000.17,2000.31,2000.2,2000.14,2000.13,2000.13,2000.13,2000.14,2000.15,2000.15,2000.16,2000.16,2000.17,2000.18,2000.2,2000.23,2000.25,2000.24,2000.24,2000.25,2000.27,2000.31,2000.36,2000.43,2000.52,2000.63,2000.74,2000.8,2000.77,2000.69,2000.59,2000.51,2000.45,2000.41,2000.38,2000.36,2000.36,2000.35,2000.35,2000.35,2000.35,2000.36,2000.36,2000.37,2000.38,2000.39,2000.39,2000.4,2000.4,2000.41,2000.42,2000.53,2000.45,2000.43,2000.44,2000.44,2000.45,2000.45,2000.45,2000.46,2000.46,2000.47,2000.47,2000.47,2000.48,2000.49,2000.48,2000.48,2000.48,2000.48,2000.48,2000.48,2000.49,2000.53,2001.54,2000.48,2000.45,2000.44,2000.43,2000.43,2000.42,2000.41,2000.41,2000.4,2000.4,2000.39,2000.38,2000.37,2000.37,2000.36,2000.36,2000.36,2000.35,2000.35,2000.35,2000.37,2000.45,2000.88,2004.35,2001.72,2000.64,2000.64,2000.37,2000.37,2000.41,2000.46,2000.42,2000.35
2000.18,2000.15,2000.14,2000.12,2000.1,2000.09,2000.08,2000.08,2000.15,2001.01,2000.12,2000.05,2000.04,2000.04,2000.03,2000.03,2000.03,2000.04,2000.05,2000.09,2000.19,2000.48,2001.28,2002.9,2002.66,2001.09,2000.49,2000.42,2000.33,2000.15,2000.06,2000.04,2000.05,2000.03,2000.02,2000.01,2000.01,2000,2000,2000.01,2000.01,2000.01,2000.01,2000.01,2000.02,2000.02,2000.03,2000.03,2000.07,1998.04,2000.1,2000.11,2000.16,2000.26,2000.45,2000.86,2001.87,2004.73,2005.37,2001.71,2004.61,2005.31,2002.07,2000.94,2000.49,2000.28,2000.18,2000.12,2000.09,2000.07,2000.06,2000.05,2000.04,2000.04,2000.04,2000.04,2000.04,2000.04,2000.06,2000.08,2000.05,2000.02,2000.02,2000.02,2000.02,2000.03,1998.79,2000.1,2000.01,2000.01,2000.01,2000.01,2000.01,2000,2000,2000,2000,2000.01,2000.01,2000.01,2000.03,2000.05,2000.11,2000.18,2000.19,2000.12,2000.06,2000.03,2000.02,2000.01,2000.01,2000.01,2000.01,2000.01,2000,2000,2000,2000,2000,2000,2000,2000,2000,2000,2000.01,2000.01,2000.02,2000.02,2000.03,2000.02,2000.01,2000.01,2000,2000,2000,2000,2000,2000,2000,2000,2000,2000.02,2000.02,2000.01,2000,2000.01,2000.08,2000.04,2000.01,2000.01,2000.01,2000,2000,2000,2000,2000,2000,2000,2000,2000,2000,2000,2000,2000,2000,2000,2000.01,2000.01,2000.01,2000.01,2000.08,2000.1,2000.91,2000.04,2000.01,2000.02,2000.07,2000.06,2000.02,2000.01,2000.02,2000.64,1998.58,2000.49,2000.19,2000.02,2000.01,2000.01,2000.03,2000.14,2000.07,2000.11,2000.02,2000.01,2000.01,2000.01,2000.01,2000.01,2000.01,2000.01,2000.01,2000.01,2000.01,2000.09,1999.38,2000.02,2000.02,2000.17,1999.91,2000.1,2000.01,2000.01,2000,2000,2000,2000.02,2000.04,2000.01,2000.01,2000.07,2000.88,2000.73,2000.11,2000.61,2000.02,2000,2000,2000,2000,2000,2000,2000,2000,2000,2000,2000,2000,2000,2000,2000,2000.09,1999.92,2000.01,2000.01,2000.01,2000.01,2000.02,2000.11,2000.1,2000.12,2000.34,2001.6,1997.26,1994.15,1999.76,2001.02,2000.28,2000.12,2000.08,2000.06,2000.08,2000.06,2000.05,2000.07,2000.41,2001.74,2000.07,2000.05,2000.05,2000.06,2000.08,2000.12,2000.22,2000.29,2000.2,2000.12,2000.08,2000.07,2000.08,2000.08,2000.07,2000.07,2000.07,2000.07,2000.08,2000.12,2000.09,2000.08,2000.09,2000.11,2000.1,2000.09,2000.09,2000.09,2000.1,2000.1,2000.11,2000.11,2000.11,2000.11,2000.13,2000.34,1997.01,2000.65,2000.15,2000.13,2000.13,2000.14,2000.14,2000.15,2000.15,2000.16,2000.17,2000.18,2000.19,2000.2,2000.21,2000.22,2000.23,2000.25,2000.27,2000.3,2000.35,2000.42,2000.54,2000.8,2001.33,2001.37,2001.57,2001.47,2001.16,2000.86,2000.65,2000.52,2000.45,2000.41,2000.42,2001.01,2000.38,2000.37,2000.37,2000.37,2000.38,2000.38,2000.39,2000.4,2000.4,2000.41,2000.42,2000.46,2000.44,2000.44,2000.45,2000.45,2000.46,2000.46,2000.47,2000.47,2000.48,2000.48,2000.49,2000.49,2000.49,2000.5,2000.5,2000.5,2000.51,2000.51,2000.51,2000.51,2000.51,2000.5,2000.5,2000.5,2000.53,2000.85,2000.5,2000.48,2000.47,2000.46,2000.45,2000.45,2000.44,2000.43,2000.42,2000.42,2000.41,2000.4,2000.39,2000.39,2000.38,2000.37,2000.37,2000.37,2000.36,2000.36,2000.39,2000.54,2002.27,1995.1,1997.39,2001.06,1999.98,2000.41,2000.43,2000.72,2001.88,2001.21,2000.49
2000.22,2000.19,2000.16,2000.14,2000.12,2000.1,2000.09,2000.08,2000.08,2000.08,2000.06,2000.05,2000.04,2000.04,2000.04,2000.03,2000.04,2000.04,2000.05,2000.08,2000.2,1999.96,2000.52,2000.57,2000.54,2000.36,2000.21,2000.14,2000.1,2000.06,2000.04,2000.03,2000.02,2000.02,2000.01,2000.01,2000.01,2000.01,2000.01,2000.01,2000.01,2000.01,2000.01,2000.01,2000.02,2000.02,2000.03,2000.03,2000.05,2000.09,2000.09,2000.12,2000.18,2000.3,2000.56,2001.2,2003.27,2004.39,1994.77,1991.64,1994.13,2002.9,2003.74,2001.32,2000.61,2000.33,2000.2,2000.13,2000.09,2000.07,2000.06,2000.05,2000.05,2000.05,2000.05,2000.04,2000.03,2000.03,2000.03,2000.03,2000.03,2000.02,2000.02,2000.02,2000.03,2000.08,2000.06,2000.03,2000.01,2000.01,2000.01,2000.01,2000,2000,2000,2000,2000,2000.01,2000.01,2000.02,2000.04,2000.11,2000.34,2000.97,2001.14,2000.45,2000.14,2000.05,2000.02,2000.01,2000.01,2000.02,2000.02,2000.01,2000.01,2000,2000,2000,2000,2000,2000,2000,2000,2000,2000.01,2000.04,2000.05,2000.02,2000.01,2000.01,2000.01,2000,2000,2000,2000,2000,2000,2000,2000,2000,2000,2000,2000,2000,2000,2000,2000.01,2000.01,2000.01,2000.01,2000.02,2000.01,2000,2000,2000,2000,2000,2000,2000,2000,2000,2000,2000,2000,2000,2000,2000,2000,2000,2000.01,2000.02,2000.07,2000.05,2000.02,2000.01,2000.09,1998.1,1998.35,2000.05,2000.01,2000.02,2000.14,2000.32,2000.16,1998.33,2000.06,2000.01,2000,2000.01,2000.05,2000.47,1998.12,2000.05,2000.01,2000,2000,2000,2000,2000,2000,2000,2000,2000.01,2000.03,2000.08,2000.01,2000.02,2000.17,1999.75,2000.11,2000.03,2000.03,2000.01,2000,2000.01,2000.14,2001.23,2000.01,2000.01,2000.09,1999.19,2000.05,2000.1,2000.29,2000.01,2000,2000,2000,2000,2000.01,2000.01,2000.01,2000,2000,2000,2000,2000,2000,2000,2000,2000.01,2000.02,2000.01,2000.01,2000.01,2000.01,2000.02,2000.03,2000.05,2000.09,2000.21,2000.62,2001.88,2005.68,2001.44,2000.49,2000.19,2000.1,2000.07,2000.07,2000.07,2000.07,2000.06,2000.06,2000.16,2000.14,2000.06,2000.05,2000.06,2000.07,2000.1,2000.25,2001.2,2001.79,2000.85,2000.2,2000.1,2000.08,2000.07,2000.07,2000.07,2000.07,2000.07,2000.07,2000.07,2000.08,2000.08,2000.08,2000.13,1999.43,2000.11,2000.09,2000.09,2000.09,2000.1,2000.1,2000.14,1999.08,2000.12,2000.12,2000.13,2000.21,2000.83,2000.28,2000.15,2000.14,2000.14,2000.14,2000.14,2000.15,2000.16,2000.17,2000.17,2000.18,2000.2,2000.21,2000.22,2000.22,2000.24,2000.26,2000.28,2000.32,2000.39,2000.5,2000.72,2001.18,2002.13,2003.51,2004.75,2004.03,2002.44,2001.4,2000.88,2000.63,2000.51,2000.44,2000.43,2000.57,2000.4,2000.39,2000.39,2000.39,2000.4,2000.4,2000.41,2000.42,2000.42,2000.43,2000.45,2000.58,2000.53,2000.48,2000.47,2000.48,2000.48,2000.49,2000.5,2000.5,2000.51,2000.51,2000.52,2000.52,2000.52,2000.53,2000.53,2000.53,2000.54,2000.54,2000.55,2000.55,2000.55,2000.54,2000.53,2000.53,2000.52,2000.52,2000.51,2000.5,2000.5,2000.49,2000.48,2000.47,2000.47,2000.46,2000.45,2000.44,2000.43,2000.42,2000.42,2000.41,2000.4,2000.39,2000.39,2000.38,2000.38,2000.38,2000.4,2000.52,2001.5,1998.02,2000.53,2000.84,2000.48,2000.52,2000.64,2001.74,1995.54,1998.56,2000.71
2000.27,2000.23,2000.19,2000.16,2000.14,2000.12,2000.1,2000.09,2000.08,2000.07,2000.06,2000.05,2000.05,2000.04,2000.04,2000.04,2000.04,2000.04,2000.05,2000.06,2000.16,2000.41,2000.29,2000.2,2000.19,2000.15,2000.11,2000.07,2000.06,2000.04,2000.03,2000.02,2000.02,2000.01,2000.01,2000.01,2000.01,2000.01,2000.01,2000.01,2000.01,2000.01,2000.01,2000.01,2000.02,2000.02,2000.02,2000.03,2000.04,2000.06,2000.08,2000.12,2000.19,2000.32,2000.62,2001.41,2004.42,1999.87,1990.84,1987.87,1990.23,1998.48,2005.2,2001.56,2000.67,2000.35,2000.21,2000.14,2000.09,2000.07,2000.06,2000.05,2000.07,2000.2,2000.2,2000.05,2000.03,2000.03,2000.02,2000.02,2000.04,2000.08,2000.02,2000.02,2000.06,1997.86,2000.25,2000.02,2000.01,2000.01,2000,2000,2000,2000,2000,2000,2000,2000.01,2000.01,2000.02,2000.05,2000.19,2001.05,1997.59,1996.31,2001.81,2000.27,2000.07,2000.03,2000.02,2000.02,2000.15,2000.4,2000.05,2000.01,2000,2000,2000,2000,2000,2000,2000,2000,2000.01,2000.03,2000.42,2001.08,2000.08,2000.01,2000,2000,2000,2000,2000,2000,2000,2000,2000,2000,2000,2000,2000,2000,2000,2000,2000,2000,2000,2000.01,2000.14,2000.87,2000.04,2000.01,2000,2000,2000,2000,2000.01,2000,2000,2000,2000,2000,2000,2000,2000,2000,2000,2000,2000,2000.01,2000.01,2000.01,2000.01,2000.01,2000.05,2000.56,2000.13,2000.02,2000.01,2000.01,2000.01,2000.02,2000.06,2000.27,2000.03,2000,2000,2000.01,2000.45,2001.64,2000.12,2000.02,2000.01,2000,2000,2000,2000,2000,2000,2000,2000,2000,2000,2000.01,2000.01,2000.01,2000.02,2000.04,2000.04,2001.72,2000.53,2000.02,2000.01,2000,2000.01,2000.01,2000.01,2000.01,2000.03,2000.13,2000.12,2000.03,2000.01,2000,2000,2000,2000,2000.01,2000.03,2000.08,2000.03,2000.01,2000,2000,2000,2000,2000,2000,2000,2000.01,2000.01,2000.01,2000.01,2000.01,2000.01,2000.01,2000.02,2000.04,2000.06,2000.12,2000.22,2000.42,2000.5,2000.37,2000.22,2000.13,2000.08,2000.07,2000.09,2000.39,2000.39,2000.08,2000.06,2000.06,2000.06,2000.05,2000.05,2000.06,2000.07,2000.12,2000.4,1999.27,1994.43,2001.99,2000.29,2000.11,2000.08,2000.07,2000.07,2000.07,2000.07,2000.07,2000.07,2000.08,2000.08,2000.08,2000.08,2000.11,2000.24,2000.1,2000.09,2000.09,2000.1,2000.1,2000.1,2000.12,2000.15,2000.12,2000.12,2000.12,2000.14,2000.16,2000.15,2000.14,2000.14,2000.14,2000.14,2000.15,2000.16,2000.16,2000.17,2000.18,2000.19,2000.22,2000.26,2000.25,2000.24,2000.25,2000.27,2000.3,2000.35,2000.43,2000.59,2000.95,2001.86,2004.85,2003.29,1998.92,2001.17,2007.12,2002.47,2001.2,2000.75,2000.56,2000.48,2000.44,2000.42,2000.41,2000.41,2000.41,2000.41,2000.42,2000.42,2000.43,2000.44,2000.45,2000.46,2000.47,2000.5,2002.3,2000.87,2000.51,2000.51,2000.51,2000.52,2000.53,2000.53,2000.54,2000.54,2000.55,2000.55,2000.56,2000.56,2000.57,2000.57,2000.58,2000.59,2000.63,2000.67,2000.63,2000.59,2000.57,2000.56,2000.55,2000.55,2000.54,2000.53,2000.53,2000.52,2000.51,2000.5,2000.49,2000.49,2000.48,2000.47,2000.46,2000.45,2000.44,2000.45,2000.44,2000.42,2000.41,2000.4,2000.4,2000.39,2000.4,2000.45,2000.62,2000.96,2000.98,2000.55,2000.52,2003,1999.61,2001.35,1999.3,2002.76,2000.65
2000.33,2000.27,2000.23,2000.19,2000.16,2000.13,2000.11,2000.09,2000.08,2000.07,2000.06,2000.05,2000.05,2000.04,2000.04,2000.04,2000.04,2000.04,2000.04,2000.05,2000.07,2000.1,2000.1,2000.09,2000.09,2000.08,2000.07,2000.07,2000.27,2000.04,2000.03,2000.02,2000.02,2000.01,2000.01,2000.01,2000.01,2000.01,2000.01,2000.01,2000.01,2000.01,2000.01,2000.01,2000.02,2000.02,2000.02,2000.03,2000.04,2000.06,2000.09,2000.12,2000.19,2000.32,2000.6,2001.38,2004.02,2001.74,1992.48,1989.44,1991.85,2000.32,2004.49,2001.45,2000.64,2000.35,2000.21,2000.14,2000.09,2000.07,2000.06,2000.12,2000.19,1999.33,1999.2,2000.09,2000.03,2000.02,2000.02,2000.02,2000.07,2000.47,2000.02,2000.01,2000.03,2000.16,2000.06,2000.01,2000.01,2000,2000,2000,2000.01,2000,2000,2000,2000,2000.01,2000.01,2000.02,2000.06,2000.21,2001.35,1995.69,1994.46,2004.27,2000.31,2000.08,2000.03,2000.02,2000.03,2000.78,1997.45,2000.12,2000.01,2000,2000,2000,2000,2000,2000,2000,2000,2000.01,2000.03,2000.58,1999.59,2000.08,2000.01,2000,2000,2000,2000,2000,2000,2000,2000,2000.01,2000.01,2000.01,2000.01,2000,2000,2000,2000,2000,2000,2000.01,2000.01,2000.18,2000.61,2000.04,2000.01,2000,2000,2000,2000.01,2000.17,2000.03,2000,2000,2000,2000,2000,2000,2000,2000,2000,2000,2000,2000,2000,2000,2000,2000,2000.01,2000.02,2000.01,2000.01,2000,2000,2000,2000.01,2000.01,2000.01,2000.01,2000,2000,2000,2000.02,2000.03,2000.01,2000.01,2000.01,2000.01,2000.01,2000.01,2000,2000,2000,2000,2000,2000,2000,2000,2000,2000,2000.01,2000.01,2000.03,2000.45,1999.64,2000.03,2000.01,2000.01,2000.03,2000.02,2000.01,2000.01,2000.01,2000.02,2000.01,2000.01,2000,2000,2000,2000,2000.01,2000.02,2000.19,1997.68,2000.15,2000.01,2000.01,2000.01,2000,2000,2000,2000,2000,2000.01,2000.01,2000.01,2000.01,2000.01,2000.01,2000.01,2000.02,2000.03,2000.45,2000.11,2000.12,2000.16,2000.17,2000.15,2000.12,2000.09,2000.07,2000.06,2000.1,1999.93,1999.97,2000.1,2000.05,2000.05,2000.05,2000.05,2000.05,2000.06,2000.07,2000.11,2000.28,2001.73,1999.45,2001.14,2000.22,2000.1,2000.08,2000.07,2000.07,2000.07,2000.07,2000.07,2000.08,2000.08,2000.08,2000.08,2000.09,2000.09,2000.09,2000.09,2000.09,2000.1,2000.1,2000.1,2000.11,2000.11,2000.12,2000.13,2000.13,2000.13,2000.13,2000.14,2000.14,2000.15,2000.15,2000.15,2000.15,2000.15,2000.16,2000.17,2000.18,2000.19,2000.21,2000.39,2002.14,2000.5,2000.26,2000.26,2000.28,2000.31,2000.36,2000.46,2000.67,2001.16,2002.78,2005.43,1994.61,1990.78,1992.76,2001.11,2004.1,2001.53,2000.86,2000.61,2000.51,2000.46,2000.44,2000.43,2000.43,2000.43,2000.43,2000.44,2000.45,2000.46,2000.46,2000.47,2000.48,2000.5,2000.51,2000.74,2000.66,2000.54,2000.54,2000.54,2000.55,2000.56,2000.57,2000.58,2000.58,2000.59,2000.59,2000.6,2000.6,2000.61,2000.61,2000.62,2000.67,2001.03,2003.26,2001.04,2000.67,2000.61,2000.6,2000.59,2000.58,2000.58,2000.57,2000.56,2000.55,2000.54,2000.53,2000.52,2000.52,2000.51,2000.5,2000.49,2000.48,2000.48,2001.18,2001.03,2000.44,2000.43,2000.42,2000.41,2000.41,2000.41,2000.42,2000.45,2000.52,1998.97,2000.47,2000.52,2001.05,1997.88,2000.86,2000.72,2000.63,2000.46
2000.42,2000.34,2000.27,2000.22,2000.18,2000.15,2000.12,2000.1,2000.09,2000.08,2000.07,2000.06,2000.05,2000.05,2000.17,2000.11,2000.04,2000.04,2000.04,2000.04,2000.05,2000.05,2000.06,2000.06,2000.06,2000.06,2000.05,2000.06,2000.52,2000.04,2000.03,2000.02,2000.02,2000.02,2000.01,2000.01,2000.01,2000.01,2000.01,2000.01,2000.01,2000.01,2000.01,2000.01,2000.02,2000.02,2000.02,2000.03,2000.05,2000.09,2000.17,2000.13,2000.17,2000.28,2000.53,2001.48,1999.76,2007.96,2000.11,1996.73,1999.41,2008.88,2002.67,2001.1,2000.56,2000.39,2000.26,2000.15,2000.09,2000.07,2000.06,2000.57,2001.06,2000.27,2000.26,2000.05,2000.03,2000.02,2000.02,2000.02,2000.02,2000.01,2000.01,2000.01,2000.01,2000.01,2000.01,2000.01,2000,2000,2000,2000.01,2000.06,2000.03,2000.01,2000,2000,2000.01,2000.01,2000.02,2000.05,2000.14,2000.53,2002.25,2003.49,2000.77,2000.19,2000.06,2000.03,2000.02,2000.02,2000.09,2000.16,2000.04,2000.01,2000.01,2000,2000,2000,2000,2000,2000,2000,2000,2000.01,2000.04,2000.06,2000.02,2000.01,2000,2000,2000,2000,2000,2000,2000,2000.01,2000.16,2000.19,2000.03,1999.12,2000.02,2000,2000,2000,2000.01,2000.01,2000.01,2000.01,2000.02,2000.03,2000.01,2000.01,2000,2000,2000,2000.02,2000.98,2000.05,2000,2000,2000,2000,2000,2000,2000,2000,2000,2000,2000,2000,2000,2000,2000,2000,2000,2000.01,2000.01,2000,2000,2000,2000,2000,2000,2000,2000,2000,2000,2000,2000,2000,2000.01,2000.02,2000.09,2000.03,2000.09,2000.48,2000.01,2000,2000,2000,2000,2000,2000,2000,2000,2000.01,2000.01,2000.01,2000.01,2000.03,2000.04,2000.01,2000.01,2000.05,2001.43,2000.15,2000.01,2000,2000,2000,2000,2000,2000,2000,2000,2000,2000.01,2000.04,2000.16,2000.64,2000.09,2000.02,2000.17,2000.16,2000.01,2000,2000,2000,2000,2000.01,2000.01,2000.01,2000.01,2000.01,2000.01,2000.01,2000.01,2000.03,2000.27,2000.08,2000.08,2000.08,2000.09,2000.09,2000.08,2000.07,2000.06,2000.06,2000.07,2000.14,2000.14,2000.07,2000.05,2000.05,2000.05,2000.05,2000.05,2000.06,2000.06,2000.08,2000.14,2000.28,2000.39,2000.25,2000.13,2000.09,2000.07,2000.07,2000.07,2000.07,2000.07,2000.07,2000.08,2000.08,2000.09,2000.09,2000.1,2000.09,2000.09,2000.09,2000.09,2000.1,2000.1,2000.1,2000.11,2000.13,2000.18,2000.23,2000.16,2000.14,2000.14,2000.15,2000.21,2000.26,2000.17,2000.15,2000.15,2000.16,2000.17,2000.17,2000.18,2000.19,2000.22,2000.6,1996.91,2000.93,2000.28,2000.27,2000.28,2000.32,2000.38,2000.48,2000.7,2001.25,2003.18,2002.97,1992.53,1988.81,1990.73,1998.81,2004.88,2001.66,2000.9,2000.64,2000.53,2000.48,2000.46,2000.45,2000.45,2000.45,2000.46,2000.46,2000.47,2000.48,2000.49,2000.5,2000.51,2000.52,2000.53,2000.55,2000.56,2000.56,2000.57,2000.58,2000.59,2000.6,2000.61,2000.62,2000.62,2000.63,2000.63,2000.64,2000.64,2000.65,2000.65,2000.67,2000.75,2002.18,1996.02,2003.94,2000.74,2000.66,2000.64,2000.63,2000.62,2000.61,2000.61,2000.6,2000.59,2000.58,2000.57,2000.56,2000.55,2000.54,2000.52,2000.51,2000.5,2000.5,2000.57,2000.55,2000.46,2000.45,2000.44,2000.43,2000.43,2000.42,2000.42,2000.42,2000.43,2000.43,2000.42,2000.44,2000.59,2000.68,2000.5,2000.45,2000.44,2000.45
2000.53,2000.41,2000.32,2000.26,2000.21,2000.17,2000.14,2000.11,2000.1,2000.08,2000.07,2000.06,2000.05,2000.06,2000.56,2000.37,2000.05,2000.04,2000.04,2000.04,2000.04,2000.04,2000.05,2000.05,2000.05,2000.05,2000.05,2000.05,2000.04,2000.03,2000.03,2000.03,2000.02,2000.02,2000.02,2000.01,2000.01,2000.01,2000.01,2000.01,2000.01,2000.01,2000.01,2000.01,2000.02,2000.02,2000.02,2000.03,2000.05,2000.34,1998.18,2000.14,2000.15,2000.24,2000.41,2001,2001.08,2002.89,2004.93,2006.7,2005.22,2002.82,2001.41,2000.74,2000.53,2000.46,2002.79,2000.18,2000.09,2000.06,2000.05,2000.06,2000.06,2000.05,2000.04,2000.03,2000.02,2000.02,2000.02,2000.01,2000.01,2000.01,2000.01,2000.01,2000.01,2000.01,2000,2000,2000,2000,2000,2000.04,1997.97,2000.32,2000.02,2000,2000,2000,2000.01,2000.02,2000.03,2000.07,2000.16,2000.31,2000.33,2000.19,2000.09,2000.04,2000.02,2000.01,2000.01,2000.02,2000.02,2000.01,2000.02,2000.04,2000.01,2000,2000,2000,2000,2000,2000,2000,2000,2000.01,2000.01,2000.01,2000,2000,2000,2000,2000,2000,2000,2000,2000.02,2001.6,2000.6,2000.03,2000.07,2000.01,2000,2000,2000.01,2000.02,2000.11,2000.05,2000.01,2000.01,2000.01,2000.01,2000.01,2000.01,2000.01,2000.01,2000.01,2000.01,2000.01,2000,2000,2000,2000,2000,2000,2000,2000,2000,2000,2000,2000,2000,2000,2000,2000,2000,2000.01,2000.01,2000.01,2000,2000,2000,2000,2000,2000,2000,2000,2000,2000,2000,2000,2000.01,2000.06,1997.56,2000.15,2000.06,2000.41,2000.05,2000,2000,2000,2000,2000,2000,2000.01,2000.01,2000.02,2000.02,2000.01,2000.01,2000.01,2000.01,2000,2000.01,2000.05,2000.15,2000.19,2000.01,2000,2000,2000,2000,2000,2000,2000.01,2000.01,2000.01,2000.02,2000.21,1999.58,2000.37,2000.04,2000.02,2000.16,2000.15,2000.01,2000,2000,2000,2000,2000.01,2000.01,2000.01,2000.01,2000.01,2000.01,2000.01,2000.01,2000.02,2000.02,2000.05,2000.06,2000.06,2000.07,2000.08,2000.11,2000.11,2000.07,2000.06,2000.05,2000.06,2000.06,2000.05,2000.05,2000.05,2000.05,2000.05,2000.05,2000.06,2000.06,2000.07,2000.09,2000.11,2000.12,2000.11,2000.09,2000.08,2000.07,2000.07,2000.07,2000.07,2000.07,2000.08,2000.08,2000.09,2000.11,2000.14,2000.14,2000.11,2000.1,2000.1,2000.1,2000.1,2000.1,2000.11,2000.11,2000.16,2000.87,1998.77,2000.31,2000.21,2000.25,2000.17,2000.89,1999.54,2000.37,2000.17,2000.16,2000.16,2000.17,2000.18,2000.19,2000.2,2000.22,2000.29,2000.47,2000.33,2000.27,2000.27,2000.29,2000.32,2000.38,2000.47,2000.67,2001.16,2002.66,2007.63,1996.42,1992.48,1994.51,2003.11,2003.64,2001.48,2000.87,2000.64,2000.54,2000.49,2000.47,2000.47,2000.47,2000.48,2000.49,2000.49,2000.5,2000.51,2000.52,2000.53,2000.54,2000.55,2000.56,2000.58,2000.59,2000.6,2000.61,2000.62,2000.63,2000.64,2000.65,2000.66,2000.66,2000.67,2000.68,2000.68,2000.69,2000.69,2000.7,2000.71,2000.75,2001.05,2002.04,2001.06,2000.75,2000.7,2000.68,2000.67,2000.66,2000.66,2000.65,2000.64,2000.63,2000.62,2000.62,2000.6,2000.58,2000.57,2000.56,2000.54,2000.53,2000.52,2000.51,2000.5,2000.49,2000.48,2000.47,2000.46,2000.45,2000.44,2000.43,2000.43,2000.42,2000.43,2000.41,2000.41,2000.42,2000.42,2000.41,2000.41,2000.41,2000.42
2000.66,2000.5,2000.38,2000.3,2000.23,2000.19,2000.16,2000.13,2000.11,2000.1,2000.09,2000.07,2000.06,2000.05,2000.07,2000.06,2000.04,2000.04,2000.04,2000.04,2000.04,2000.04,2000.04,2000.05,2000.05,2000.05,2000.05,2000.05,2000.04,2000.04,2000.04,2000.03,2000.03,2000.02,2000.02,2000.02,2000.01,2000.01,2000.01,2000.01,2000.01,2000.01,2000.01,2000.01,2000.01,2000.02,2000.02,2000.03,2000.04,2000.08,2000.14,2000.1,2000.13,2000.18,2000.29,2000.48,2000.79,2001.15,2001.61,2001.97,2002.03,2001.25,2000.76,2000.48,2000.42,1999.65,2001.9,2000.17,2000.08,2000.05,2000.04,2000.04,2000.03,2000.03,2000.03,2000.02,2000.02,2000.02,2000.01,2000.01,2000.01,2000.01,2000.01,2000,2000,2000,2000,2000,2000,2000,2000,2000.02,2000.11,1999.88,2000.03,2000,2000,2000,2000.01,2000.01,2000.02,2000.04,2000.06,2000.08,2000.08,2000.06,2000.04,2000.03,2000.02,2000.01,2000.02,2000.02,2000.01,2000.01,2000.12,1998.84,2000.02,2000,2000,2000.01,2000.02,2000.01,2000,2000,2000,2000,2000,2000,2000,2000,2000,2000.01,2000.01,2000.01,2000,2000,2000.01,2000.04,2000.04,2000.01,2000.01,2000,2000,2000,2000.01,2000.05,1998.05,2000.3,2000.02,2000.01,2000.01,2000.01,2000.01,2000.01,2000.01,2000.01,2000.01,2000,2000,2000,2000,2000,2000,2000,2000,2000,2000,2000,2000,2000,2000,2000.01,2000,2000,2000,2000,2000.02,2000.17,2000.09,2000.01,2000,2000,2000,2000,2000,2000,2000,2000,2000,2000,2000,2000.01,2000.03,2000.18,2000.47,2000.1,2000.24,2000.04,2000,2000,2000,2000,2000,2000,2000.01,2000.05,2000.12,2000.09,2000.03,2000.01,2000,2000,2000,2000,2000.01,2000.03,2000.02,2000.01,2000,2000,2000,2000,2000,2000.01,2000.49,2000.06,2000.01,2000.02,2000.26,1998.06,2000.46,2000.04,2000.01,2000.01,2000.01,2000,2000,2000,2000,2000,2000.01,2000.01,2000.01,2000.01,2000.01,2000.01,2000.01,2000.01,2000.01,2000.01,2000.04,2000.05,2000.05,2000.06,2000.12,2000.94,2001.19,2000.13,2000.06,2000.05,2000.05,2000.05,2000.07,2000.06,2000.06,2000.05,2000.05,2000.05,2000.06,2000.06,2000.06,2000.07,2000.08,2000.08,2000.08,2000.08,2000.07,2000.07,2000.07,2000.08,2000.08,2000.08,2000.08,2000.08,2000.1,2000.19,2000.79,2000.69,2000.18,2000.11,2000.1,2000.1,2000.1,2000.1,2000.11,2000.12,2000.16,2000.77,1999.43,2000.31,2000.53,2000.64,2000.17,2000.35,1998.65,2000.92,2000.18,2000.17,2000.17,2000.18,2000.18,2000.19,2000.2,2000.21,2000.23,2000.25,2000.25,2000.26,2000.27,2000.29,2000.32,2000.37,2000.46,2000.61,2001.17,2001.48,2003.96,2007.53,2002.85,2005.24,2005.02,2002.14,2001.16,2000.78,2000.62,2000.54,2000.5,2000.49,2000.49,2000.51,2000.78,2000.6,2000.52,2000.53,2000.54,2000.56,2000.58,2000.58,2000.59,2000.6,2000.61,2000.62,2000.64,2000.65,2000.66,2000.67,2000.68,2000.69,2000.7,2000.71,2000.72,2000.73,2000.73,2000.74,2000.74,2000.75,2000.75,2000.77,2000.8,2000.83,2000.8,2000.76,2000.74,2000.73,2000.72,2000.71,2000.7,2000.69,2000.68,2000.67,2000.67,2001.06,2000.72,2000.63,2000.61,2000.59,2000.58,2000.56,2000.55,2000.54,2000.52,2000.52,2000.5,2000.49,2000.48,2000.47,2000.46,2000.45,2000.44,2000.45,2000.21,2000.51,2000.41,2000.41,2000.4,2000.41,2000.41,2000.42,2000.43
2000.83,2000.6,2000.44,2000.34,2000.26,2000.21,2000.4,2000.33,2000.12,2000.32,2000.73,2000.07,2000.06,2000.05,2000.05,2000.05,2000.04,2000.04,2000.04,2000.04,2000.04,2000.04,2000.05,2000.05,2000.06,2000.06,2000.07,2000.07,2000.06,2000.06,2000.05,2000.05,2000.04,2000.03,2000.03,2000.02,2000.02,2000.01,2000.01,2000.01,2000.01,2000.01,2000.01,2000.01,2000.01,2000.02,2000.02,2000.03,2000.03,2000.05,2000.07,2000.1,2000.11,2000.14,2000.2,2000.29,2000.41,2000.56,2000.73,2001.66,1997.13,2000.89,2000.45,2000.32,2000.25,2000.27,2000.2,2000.1,2000.07,2000.05,2000.04,2000.03,2000.02,2000.02,2000.02,2000.01,2000.01,2000.01,2000.01,2000.01,2000,2000,2000,2000,2000,2000,2000,2000,2000,2000,2000,2000,2000.01,2000.01,2000.01,2000,2000,2000,2000.01,2000.04,2000.08,2000.04,2000.03,2000.03,2000.03,2000.03,2000.04,2000.06,2000.03,2000.03,2000.05,2000.07,2000.03,2000.01,2000.02,2000.03,2000.01,2000,2000,2000.03,1999.74,2000.18,2000.01,2000,2000,2000,2000,2000,2000,2000,2000.01,2000.17,2000.16,2000.02,2000.05,2000.03,2000.01,2000.01,2000.01,2000,2000,2000,2000,2000.01,2000.01,2000.03,2000.11,2000.05,2000.02,2000.02,2000.02,2000.02,2000.02,2000.02,2000.02,2000.01,2000.01,2000.01,2000,2000,2000,2000,2000,2000,2000,2000,2000,2000,2000,2000,2000.02,2000.61,2000.02,2000,2000,2000.01,2000.05,1998.16,2000.66,2000.02,2000,2000,2000,2000,2000,2000,2000.01,2000.02,2000.02,2000,2000,2000.01,2000.17,2000.41,1996.71,2000.3,2000.02,2000.01,2000,2000,2000,2000,2000,2000.01,2000.03,2000.19,1999.51,2001.28,2000.08,2000.01,2000,2000,2000,2000,2000,2000,2000,2000,2000,2000,2000,2000,2000,2000.02,2000.27,2000.05,2000.01,2000.01,2000.05,2000.12,2000.06,2000.02,2000.01,2000,2000,2000,2000,2000,2000,2000,2000.01,2000.01,2000.01,2000.01,2000.01,2000.01,2000.01,2000.01,2000.01,2000.01,2000.04,2000.04,2000.05,2000.06,2000.14,1999.62,1998.7,2000.17,2000.06,2000.05,2000.05,2000.06,2000.79,2000.28,2000.29,2000.07,2000.05,2000.05,2000.05,2000.06,2000.06,2000.06,2000.07,2000.07,2000.08,2000.18,2000.09,2000.07,2000.08,2000.13,2000.16,2000.09,2000.08,2000.09,2000.11,2000.32,1997.39,1998.18,2000.27,2000.12,2000.1,2000.1,2000.1,2000.11,2000.11,2000.12,2000.13,2000.18,2000.22,2000.17,2000.16,2000.16,2000.15,2000.17,2000.21,2000.19,2000.18,2000.18,2000.18,2000.18,2000.2,2000.53,2000.22,2000.21,2000.22,2000.24,2000.25,2000.26,2000.28,2000.3,2000.32,2000.37,2000.43,2000.54,2000.79,2001.31,2001.73,2002.61,2003.27,2002.9,2001.99,2001.28,2000.89,2000.69,2000.59,2000.54,2000.51,2000.51,2000.51,2000.54,2000,2000.8,2000.55,2000.56,2000.58,2000.81,2000.92,2000.61,2000.62,2000.64,2000.65,2000.66,2000.68,2000.69,2000.71,2000.72,2000.73,2000.74,2000.75,2000.76,2000.77,2000.78,2000.79,2000.79,2000.8,2000.8,2000.81,2000.81,2000.82,2000.82,2000.81,2000.8,2000.79,2000.78,2000.77,2000.76,2000.75,2000.74,2000.73,2000.72,2000.72,2001.17,2000.77,2000.67,2000.65,2000.63,2000.62,2000.6,2000.58,2000.57,2000.55,2000.54,2000.53,2000.52,2000.51,2000.5,2000.5,2000.49,2000.48,2000.47,2000.63,2000.47,2000.43,2000.42,2000.41,2000.42,2000.42,2000.43,2000.45
2001.02,2000.71,2000.51,2000.38,2000.29,2000.23,2000.23,2000.19,2000.12,2000.11,2000.1,2000.07,2000.06,2000.06,2000.05,2000.05,2000.04,2000.04,2000.04,2000.04,2000.04,2000.05,2000.06,2000.07,2000.07,2000.08,2000.09,2000.1,2000.09,2000.09,2000.08,2000.07,2000.05,2000.04,2000.03,2000.03,2000.02,2000.02,2000.01,2000.02,2000.01,2000.01,2000.01,2000.02,2000.01,2000.02,2000.02,2000.02,2000.03,2000.04,2000.07,1998.65,2000.18,2000.11,2000.14,2000.19,2000.25,2000.31,2000.38,2000.57,2001.01,2000.43,2000.28,2000.26,2000.3,2000.17,2000.1,2000.07,2000.05,2000.04,2000.04,2000.03,2000.02,2000.02,2000.01,2000.01,2000.01,2000.01,2000.01,2000.01,2000,2000,2000,2000,2000,2000,2000,2000,2000,2000,2000,2000,2000,2000,2000,2000,2000,2000,2000.02,2000.29,1997.8,2000.1,2000.02,2000.01,2000.02,2000.02,2000.17,1999.14,2000.13,2000.05,2000.44,2001.61,2000.15,2000.02,2000.01,2000,2000,2000,2000,2000.02,2000.23,2000.07,2000.01,2000,2000,2000,2000.01,2000.01,2000,2000,2000.02,2001.64,2001.77,2000.03,2000.42,2000.21,2000.01,2000,2000,2000,2000,2000,2000,2000.01,2000.19,2000.08,1998.23,2000.04,2000.03,2000.04,2000.05,2000.06,2000.05,2000.04,2000.03,2000.02,2000.01,2000.01,2000.01,2000,2000,2000,2000,2000,2000,2000,2000,2000,2000,2000,2000.02,2000.33,2000.02,2000,2000,2000,2000.02,2000.1,2000.06,2000.01,2000,2000,2000,2000,2000,2000,2000.01,2000.54,2000.36,2000.01,2000,2000.01,2000.08,2000.11,2000.23,2000.07,2000.01,2000,2000,2000,2000,2000,2000,2000.01,2000.03,2000.22,1998.31,2001.87,2000.09,2000.01,2000,2000,2000,2000,2000,2000,2000,2000,2000,2000,2000,2000,2000,2000.05,1999.44,2000.01,2000,2000.01,2000.01,2000.01,2000.01,2000.01,2000,2000,2000,2000,2000,2000,2000,2000,2000.01,2000.01,2000.01,2000.01,2000.01,2000.01,2000.02,2000.01,2000.01,2000.04,2000.04,2000.04,2000.04,2000.05,2000.08,2000.21,2000.22,2000.09,2000.06,2000.05,2000.05,2000.06,2000.13,2000.15,1998.94,2000.09,2000.06,2000.05,2000.05,2000.06,2000.06,2000.06,2000.06,2000.07,2000.09,1998.68,2000.14,2000.07,2000.08,2000.63,1999.19,2000.1,2000.08,2000.09,2000.1,2000.19,2000.83,2000.72,2000.18,2000.11,2000.1,2000.1,2000.1,2000.11,2000.11,2000.12,2000.12,2000.13,2000.14,2000.14,2000.14,2000.14,2000.15,2000.15,2000.17,2000.2,2000.36,2000.37,2000.21,2000.19,2000.21,2000.65,2000.23,2000.22,2000.23,2000.24,2000.28,2000.31,2000.29,2000.3,2000.32,2000.36,2000.41,2000.48,2000.59,2000.75,2000.97,2001.2,2001.34,2001.28,2001.09,2000.87,2000.72,2000.62,2000.57,2000.54,2000.53,2000.52,2000.53,2000.54,2000.57,2000.58,2000.58,2000.63,2000.6,2000.64,2000.64,2000.65,2000.66,2000.68,2000.69,2000.71,2000.73,2000.74,2000.76,2000.77,2000.79,2000.8,2000.81,2000.82,2000.83,2000.84,2000.85,2000.85,2000.86,2000.86,2000.86,2000.87,2000.87,2000.86,2000.86,2000.85,2000.85,2000.84,2000.83,2000.82,2000.81,2000.8,2000.79,2000.78,2000.76,2000.75,2000.73,2000.71,2000.69,2000.67,2000.65,2000.64,2000.62,2000.6,2000.59,2000.58,2000.56,2000.55,2000.54,2000.54,2000.56,2000.58,2000.55,2000.5,2000.47,2000.45,2000.44,2000.43,2000.43,2000.43,2000.43,2000.44,2000.47
2001.22,2000.82,2000.58,2000.42,2000.31,2000.24,2000.19,2000.15,2000.12,2000.1,2000.08,2000.07,2000.06,2000.06,2000.05,2000.05,2000.04,2000.04,2000.04,2000.04,2000.05,2000.06,2000.08,2000.12,2000.12,2000.12,2000.14,2000.16,2000.17,2000.15,2000.13,2000.1,2000.08,2000.06,2000.04,2000.03,2000.02,2000.02,2000.02,2000.01,2000.02,2000.02,2000.01,2000.02,2000.01,2000.02,2000.02,2000.02,2000.03,2000.03,2000.05,2000.14,2000.09,2000.08,2000.1,2000.13,2000.16,2000.19,2000.22,2000.24,2000.25,2000.21,2000.19,2000.47,1997.1,2000.28,2000.08,2000.06,2000.05,2000.07,2000.11,2000.04,2000.02,2000.02,2000.01,2000.01,2000.01,2000.01,2000.01,2000.01,2000,2000,2000,2000,2000,2000,2000,2000,2000,2000,2000,2000,2000,2000,2000,2000,2000,2000,2000.01,2000.1,2000.41,2000.05,2000.01,2000.01,2000.01,2000.02,2000.14,2000.72,2000.11,2000.07,2001.15,1997.22,2000.25,2000.03,2000.01,2000,2000,2000,2000,2000,2000.01,2000.01,2000,2000,2000.01,2000.02,2000.05,2000.03,2000.01,2000,2000.01,2000.03,2000.03,2000.01,2000.02,2000.01,2000,2000,2000,2000,2000,2000,2000,2000.01,2000.6,2000.07,2000.04,2000.03,2000.05,2000.08,2000.12,2000.15,2000.14,2000.1,2000.06,2000.03,2000.02,2000.01,2000.01,2000,2000,2000,2000,2000,2000,2000,2000,2000,2000,2000.01,2000.17,2000.03,2000,2000,2000,2000,2000,2000.01,2000.01,2000,2000,2000.01,2000.11,2000.02,2000,2000,2000.01,2000.09,2000.06,2000.01,2000,2000,2000.01,2000.01,2000.02,2000.01,2000,2000,2000,2000,2000,2000,2000,2000,2000.01,2000.06,2000.17,2000.13,2000.03,2000.01,2000,2000,2000,2000,2000,2000,2000,2000,2000,2000,2000,2000,2000,2000.01,2000.03,2000.01,2000,2000,2000,2000,2000,2000,2000,2000,2000,2000.01,2000.08,2000.02,2000,2000,2000.01,2000.01,2000.01,2000.01,2000.01,2000.03,1999.69,2000.06,2000.01,2000.04,2000.04,2000.04,2000.04,2000.04,2000.05,2000.06,2000.07,2000.08,2000.1,2000.05,2000.05,2000.05,2000.05,2000.06,2000.07,2000.06,2000.05,2000.05,2000.06,2000.06,2000.06,2000.06,2000.06,2000.07,2000.07,2000.09,2000.08,2000.07,2000.08,2000.12,2000.14,2000.09,2000.08,2000.09,2000.09,2000.11,2000.15,2000.15,2000.12,2000.11,2000.1,2000.1,2000.11,2000.11,2000.11,2000.12,2000.12,2000.13,2000.13,2000.13,2000.14,2000.14,2000.15,2000.16,2000.17,2000.24,1999.17,1998.99,2000.26,2000.2,2000.2,2000.21,2000.22,2000.22,2000.23,2000.26,2000.68,1999.08,2000.32,2000.3,2000.32,2000.35,2000.39,2000.43,2000.5,2000.58,2000.67,2000.76,2000.81,2000.81,2000.77,2000.69,2000.62,2000.58,2000.55,2000.54,2000.54,2000.54,2000.55,2000.56,2000.57,2000.59,2000.61,2000.64,2000.74,2000.66,2000.67,2000.69,2000.7,2000.72,2000.74,2000.76,2000.78,2000.8,2000.81,2000.83,2000.84,2000.86,2000.87,2000.88,2000.89,2000.91,2000.92,2000.92,2000.93,2000.93,2000.93,2000.93,2000.93,2000.93,2000.93,2000.92,2000.91,2000.9,2000.89,2000.88,2000.87,2000.86,2000.86,2000.89,2000.84,2000.8,2000.78,2000.76,2000.74,2000.72,2000.7,2000.68,2000.66,2000.64,2000.62,2000.61,2000.6,2000.58,2000.58,2000.62,2000.81,2001.21,2000.9,2000.6,2000.51,2000.48,2000.46,2000.45,2000.44,2000.45,2000.45,2000.46,2000.48
2001.41,2000.96,2000.69,2000.46,2000.33,2000.25,2000.2,2000.15,2000.13,2000.1,2000.09,2000.07,2000.06,2000.06,2000.05,2000.05,2000.04,2000.04,2000.04,2000.05,2000.05,2000.07,2000.19,2001.29,2000.37,2000.2,2000.25,2000.31,2000.34,2000.31,2000.24,2000.17,2000.12,2000.08,2000.06,2000.04,2000.03,2000.02,2000.02,2000.01,2000.02,2000.02,2000.01,2000.02,2000.02,2000.02,2000.03,2000.02,2000.02,2000.03,2000.03,2000.04,2000.05,2000.06,2000.07,2000.09,2000.11,2000.12,2000.13,2000.14,2000.14,2000.13,2000.12,2000.19,2000.55,2000.14,2000.06,2000.05,2000.06,2000.27,2000.59,2000.27,2000.03,2000.02,2000.01,2000.01,2000.01,2000.01,2000.01,2000,2000,2000,2000,2000,2000,2000,2000,2000,2000,2000,2000.01,2000,2000,2000,2000,2000,2000,2000.01,2000.01,2000.02,2000.02,2000.01,2000.01,2000.01,2000.01,2000.01,2000.03,2000.18,2000.07,2000.03,2000.12,2000.21,2000.06,2000.02,2000.01,2000.01,2000,2000,2000,2000,2000,2000,2000,2000,2000.01,2000.11,2000,2000.22,2000.02,2000,2000,2000,2000,2000,2000,2000,2000,2000,2000,2000,2000,2000,2000,2000.01,2000.01,2000.02,2000.02,2000.05,2000.25,2000.29,2000.39,2000.58,2000.49,2000.26,2000.12,2000.05,2000.03,2000.01,2000.01,2000.01,2000,2000,2000,2000,2000,2000,2000.01,2000.02,2000.01,2000.01,2000.64,2000.04,2000,2000,2000,2000,2000,2000,2000,2000,2000,2000.03,1998.69,2000.05,2000,2000,2000,2000.01,2000.01,2000,2000,2000,2000,2000,2000,2000,2000,2000,2000,2000,2000,2000,2000,2000,2000.01,2000.01,2000.02,2000.02,2000.01,2000,2000,2000.01,2000.19,2000.01,2000,2000,2000,2000,2000,2000,2000,2000,2000,2000,2000,2000,2000,2000,2000,2000,2000,2000,2000,2000,2000,2000.01,2000.6,2000.04,2000,2000,2000.01,2000.01,2000.01,2000.01,2000.02,2000.76,2000.2,2000.03,2000.04,2000.04,2000.04,2000.04,2000.04,2000.04,2000.04,2000.05,2000.06,2000.38,1999.48,2000.06,2000.05,2000.05,2000.05,2000.05,2000.05,2000.05,2000.05,2000.05,2000.06,2000.06,2000.06,2000.06,2000.07,2000.07,2000.07,2000.07,2000.07,2000.07,2000.08,2000.17,2000.13,2000.09,2000.08,2000.08,2000.09,2000.09,2000.1,2000.1,2000.1,2000.1,2000.1,2000.1,2000.11,2000.11,2000.11,2000.12,2000.12,2000.13,2000.13,2000.14,2000.14,2000.16,2000.37,2000.18,2000.17,2000.21,2000.53,2000.55,2000.23,2000.2,2000.2,2000.21,2000.22,2000.23,2000.24,2000.26,2000.34,2000.47,2000.31,2000.31,2000.32,2000.35,2000.37,2000.41,2000.45,2000.5,2000.55,2000.6,2000.62,2000.66,1999.12,2000.66,2000.57,2000.56,2000.55,2000.55,2000.55,2000.56,2000.57,2000.59,2000.6,2000.62,2000.64,2000.66,2000.68,2000.69,2000.71,2000.73,2000.75,2000.77,2000.79,2000.81,2000.83,2000.85,2000.87,2000.89,2000.91,2000.92,2000.94,2000.95,2000.97,2000.99,2001.14,2001.06,2001.01,2001.01,2001.01,2001.01,2001.01,2001.01,2001,2001,2000.99,2000.98,2000.97,2000.96,2000.95,2000.95,2000.99,2002.36,2000.99,2000.87,2000.83,2000.81,2000.79,2000.77,2000.75,2000.72,2000.7,2000.68,2000.66,2000.65,2000.63,2000.62,2000.62,2000.72,2002.09,1996.67,2001.66,2001.31,2000.58,2000.51,2000.48,2000.47,2000.46,2000.46,2000.47,2000.47,2000.49
2001.55,2001.46,2000.01,2000.49,2000.35,2000.26,2000.2,2000.16,2000.13,2000.1,2000.09,2000.07,2000.07,2000.06,2000.05,2000.05,2000.05,2000.04,2000.05,2000.05,2000.06,2000.08,2000.25,1998.23,2000.61,2000.33,2000.5,2000.73,2000.86,2000.74,2000.51,2000.32,2000.19,2000.11,2000.07,2000.05,2000.03,2000.03,2000.02,2000.02,2000.02,2000.02,2000.01,2000.02,2000.02,2000.09,1999.99,2000.04,2000.02,2000.02,2000.03,2000.03,2000.04,2000.05,2000.06,2000.07,2000.07,2000.08,2000.09,2000.09,2000.09,2000.09,2000.08,2000.08,2000.08,2000.06,2000.05,2000.04,2000.12,1998.78,2000.62,2000.41,2000.09,2000.02,2000.01,2000.01,2000.01,2000.01,2000.01,2000,2000,2000,2000,2000,2000,2000,2000,2000,2000,2000.02,2000.12,2000.03,2000,2000,2000,2000,2000.02,1999.67,2000.04,2000.04,2000.34,2000.01,2000.01,2000.01,2000.01,2000.01,2000.02,2000.95,2000.11,2000.02,2000.02,2000.02,2000.02,2000.01,2000.02,2000.03,2000.01,2000.01,2000,2000,2000,2000,2000,2000,2000.01,2000.12,1999.32,2000.25,2000.02,2000.01,2000,2000,2000,2000,2000,2000,2000,2000,2000,2000,2000,2000,2000,2000.01,2000.01,2000.01,2000.03,2000.07,2002.05,2000.84,2001.64,2002.17,2005.05,2000.78,2000.23,2000.08,2000.04,2000.02,2000.01,2000.01,2000,2000,2000,2000,2000,2000.01,2000.05,2000.15,2000.11,2000.01,2000.01,2000,2000,2000,2000,2000,2000,2000,2000.01,2000.01,2000.01,2000.01,2000.02,2000.01,2000,2000,2000,2000,2000,2000,2000,2000,2000,2000,2000,2000,2000,2000,2000,2000,2000,2000,2000,2000,2000,2000,2000.01,2000.01,2000,2000,2000,2000.02,2000.48,2000.01,2000,2000,2000,2000,2000,2000,2000,2000,2000,2000,2000,2000,2000,2000,2000,2000,2000,2000,2000,2000,2000,2000,2000.01,2000,2000,2000,2000.01,2000.01,2000.01,2000.01,2000.01,2000.13,2000.05,2000.01,2000.04,2000.04,2000.04,2000.04,2000.04,2000.04,2000.04,2000.05,2000.05,2000.08,2000.1,2000.06,2000.05,2000.05,2000.05,2000.05,2000.05,2000.05,2000.05,2000.05,2000.06,2000.06,2000.06,2000.1,2000.19,2000.08,2000.07,2000.07,2000.07,2000.07,2000.09,2001.22,2000.29,2000.09,2000.08,2000.09,2000.09,2000.09,2000.1,2000.1,2000.1,2000.1,2000.1,2000.11,2000.11,2000.11,2000.12,2000.12,2000.13,2000.15,2000.27,2000.15,2000.14,2000.17,2000.52,2000.19,2000.21,2000.21,2000.21,2000.21,2000.2,2000.2,2000.21,2000.22,2000.26,2000.25,2000.25,2000.26,2000.27,2000.29,2000.3,2000.31,2000.33,2000.34,2000.37,2000.39,2000.42,2000.47,2000.71,2000.65,2000.54,2000.56,2000.7,2000.58,2000.55,2000.55,2000.55,2000.56,2000.57,2000.59,2000.64,2000.63,2000.64,2000.65,2000.67,2000.69,2000.71,2000.74,2000.76,2000.78,2000.8,2000.83,2000.85,2000.87,2000.89,2000.92,2000.96,2000.98,2000.98,2001,2001.02,2001.03,2001.05,2001.07,2002.19,2001.27,2001.09,2001.09,2001.09,2001.09,2001.09,2001.09,2001.08,2001.08,2001.07,2001.06,2001.05,2001.04,2001.03,2001.05,2001.74,1999.36,2001.23,2000.94,2000.89,2000.87,2000.84,2000.82,2000.8,2000.77,2000.75,2000.72,2000.7,2000.69,2000.67,2000.65,2000.66,2000.76,2002.1,1996.76,2001.76,2002,2000.66,2000.7,2000.55,2000.49,2000.48,2000.5,2000.49,2000.49,2000.5
2001.6,2001.04,2000.73,2000.49,2000.35,2000.27,2000.21,2000.16,2000.13,2000.11,2000.09,2000.07,2000.07,2000.06,2000.05,2000.05,2000.05,2000.05,2000.05,2000.05,2000.06,2000.08,2000.14,2000.25,2000.32,2000.55,2001.15,2002.38,2003.45,2002.52,2001.29,2001.19,2000.34,2000.16,2000.09,2000.06,2000.04,2000.04,2000.12,2000.06,2000.02,2000.02,2000.01,2000.01,2000.02,2000.05,2000.2,2000.03,2000.02,2000.02,2000.02,2000.03,2000.03,2000.04,2000.04,2000.05,2000.05,2000.06,2000.06,2000.06,2000.06,2000.06,2000.06,2000.05,2000.05,2000.04,2000.03,2000.03,2000.04,2000.05,2000.05,2000.22,2000.08,2000.02,2000.01,2000.01,2000.01,2000.01,2000,2000,2000,2000,2000,2000,2000,2000,2000,2000,2000,2000.05,1997.88,2000.11,2000.01,2000,2000,2000,2000.01,2000.11,2000.02,2000.03,2000.19,2000.01,2000.02,1999.76,2000.05,2000.01,2000.54,2000.04,2000.01,2000.01,2000.01,2000.01,2000.01,2000.02,2000.23,2000.55,2000.11,2000.01,2000,2000,2000,2000,2000.01,2000.01,2000.01,2000.03,2000.06,2000.03,2000.01,2000.01,2000,2000,2000,2000,2000,2000,2000,2000,2000,2000,2000,2000,2000,2000,2000.01,2000.01,2000.03,2000.07,2000.21,2000.82,1999.87,1993.28,1995.6,2001.94,2000.35,2000.1,2000.04,2000.02,2000.01,2000.01,2000,2000,2000,2000,2000,2000.01,2000.05,2001.53,2000.09,2000.01,2000,2000,2000,2000,2000,2000,2000,2000.01,2000.02,2000.04,2000.04,2000.02,2000.01,2000,2000,2000,2000.02,2000.02,2000.01,2000,2000,2000,2000,2000,2000,2000,2000,2000,2000,2000,2000,2000,2000,2000,2000,2000,2000,2000,2000,2000,2000,2000,2000,2000,2000,2000,2000,2000,2000,2000,2000,2000,2000,2000,2000,2000,2000,2000,2000,2000,2000,2000,2000,2000,2000,2000,2000,2000,2000,2000,2000.01,2000.01,2000.01,2000.01,2000.01,2000.01,2000.01,2000.01,2000.04,2000.04,2000.04,2000.04,2000.04,2000.04,2000.04,2000.05,2000.06,2000.3,2000.11,2000.07,2000.06,2000.05,2000.05,2000.05,2000.05,2000.05,2000.05,2000.06,2000.06,2000.06,2000.07,2000.2,2000.11,2000.09,2000.07,2000.07,2000.07,2000.07,2000.08,2000.09,2000.1,2000.09,2000.09,2000.09,2000.09,2000.1,2000.1,2000.1,2000.1,2000.11,2000.11,2000.11,2000.11,2000.11,2000.12,2000.12,2000.13,2000.16,2001.53,2000.15,2000.15,2000.15,2000.17,2000.19,1999.8,2000.8,2000.2,2000.19,2000.19,2000.2,2000.21,2000.24,1998.35,2000.33,2000.25,2000.26,2000.27,2000.28,2000.3,2000.31,2000.33,2000.35,2000.37,2000.39,2000.41,2000.45,2001.27,2000.82,2000.51,2000.52,2000.53,2000.54,2000.55,2000.55,2000.56,2000.58,2000.59,2000.66,1998.6,2000.77,2000.67,2000.69,2000.71,2000.74,2000.76,2000.79,2000.81,2000.84,2000.87,2000.89,2000.91,2000.94,2000.96,2001,2001.68,2001.42,2001.06,2001.08,2001.1,2001.11,2001.13,2001.15,2001.17,2001.18,2001.18,2001.18,2001.19,2001.19,2001.19,2001.18,2001.18,2001.17,2001.16,2001.15,2001.14,2001.13,2001.12,2001.14,2001.8,1999.46,2001.3,2001.01,2000.96,2000.93,2000.9,2000.88,2000.86,2000.85,2000.8,2000.77,2000.75,2000.73,2000.71,2000.69,2000.68,2000.71,2000.9,2001.27,2000.97,2000.72,2000.96,1997.4,2000.76,2000.52,2000.5,2001.69,2000.91,2000.51,2000.52
2001.54,2000.99,2000.67,2000.48,2000.36,2000.29,2000.22,2000.16,2000.13,2000.1,2000.09,2000.07,2000.07,2000.06,2000.05,2000.05,2000.05,2000.05,2000.05,2000.05,2000.06,2000.08,2000.13,2000.21,2000.39,2000.92,2003,1999.97,1995.66,1999.19,2003.56,1999.24,2000.51,2000.2,2000.11,2000.07,2000.04,2000.04,2000.36,2000.22,2000.02,2000.02,2000.01,2000.01,2000.01,2000.01,2000.02,2000.02,2000.02,2000.02,2000.02,2000.02,2000.03,2000.03,2000.04,2000.04,2000.04,2000.04,2000.05,2000.05,2000.05,2000.05,2000.04,2000.04,2000.04,2000.03,2000.03,2000.02,2000.02,2000.02,2000.02,2000.02,2000.02,2000.01,2000.01,2000.01,2000.01,2000.01,2000,2000,2000,2000,2000,2000,2000,2000,2000,2000,2000,2000.01,2000.04,2000.02,2000,2000,2000.01,2000.01,2000.01,2000.01,2000.01,2000.01,2000.01,2000.02,2000.4,2000.1,2000.02,2000.01,2000.15,2000.02,2000,2000,2000,2000,2000.01,2000.03,2000.69,1999.96,2001.25,2000.02,2000.01,2000.01,2000,2000.01,2000.1,2000.07,2000.02,2000.02,2000.02,2000.02,2000.01,2000.01,2000,2000,2000,2000,2000,2000,2000,2000,2000,2000,2000,2000,2000,2000,2000.01,2000.01,2000.03,2000.07,2000.19,2000.78,2000.26,1993.62,1995.95,2001.85,2000.34,2000.1,2000.04,2000.02,2000.01,2000.01,2000,2000.01,2000.01,2000.01,2000.01,2000.01,2000.01,2000.02,2000.01,2000,2000,2000,2000,2000,2000,2000,2000,2000.01,2000.06,2000.43,2000.45,2000.06,2000.01,2000,2000,2000.01,2000.21,2000.07,2000.03,2000,2000,2000,2000,2000,2000,2000,2000,2000,2000,2000,2000,2000,2000,2000,2000,2000,2000,2000,2000,2000,2000,2000,2000,2000,2000,2000,2000,2000,2000.01,2000.02,2000.01,2000,2000,2000,2000,2000,2000,2000,2000,2000,2000,2000,2000,2000,2000,2000,2000,2000,2000,2000,2000.01,2000.01,2000.01,2000.01,2000.01,2000.01,2000.01,2000.04,2000.04,2000.04,2000.04,2000.04,2000.04,2000.04,2000.04,2000.05,2000.07,1999.96,2000.26,2000.21,2000.08,2000.05,2000.05,2000.05,2000.05,2000.05,2000.06,2000.1,2000.08,2000.06,2000.06,2000.08,2000.35,2000.29,2000.08,2000.07,2000.07,2000.07,2000.08,2000.12,2000.57,2000.09,2000.09,2000.09,2000.09,2000.1,2000.1,2000.1,2000.11,2000.11,2000.11,2000.11,2000.12,2000.12,2000.12,2000.13,2000.13,2000.14,2000.14,2000.14,2000.15,2000.15,2000.16,2000.18,2000.31,2000.27,2000.19,2000.19,2000.2,2000.2,2000.21,2000.24,2000.29,2000.31,2000.27,2000.27,2000.28,2000.29,2000.3,2000.32,2000.33,2000.35,2000.37,2000.39,2000.41,2000.43,2000.47,2000.49,2000.49,2000.51,2000.52,2000.54,2000.55,2000.56,2000.58,2000.6,2000.62,2000.66,2000.83,2000.72,2000.71,2000.73,2000.76,2000.78,2000.81,2000.84,2000.87,2000.94,2000.83,2000.97,2000.98,2001.01,2001.04,2001.07,2001.11,2001.14,2001.15,2001.17,2001.19,2001.21,2001.23,2001.25,2001.26,2001.27,2001.28,2001.29,2001.29,2001.29,2001.29,2001.29,2001.28,2001.28,2001.27,2001.27,2001.26,2001.26,2001.24,2001.22,2001.24,2001.26,2001.15,2001.08,2001.04,2001,2000.97,2000.94,2000.96,1999.39,2000.86,2000.82,2000.8,2000.78,2000.75,2000.72,2000.71,2000.7,2000.71,2000.72,2000.68,2001.16,2000.83,2001.1,2000.62,2000.53,2000.52,2000.56,2000.59,2000.85,2000.56
2001.4,2000.96,2000.67,2000.46,2000.46,2002.39,2000.31,2000.17,2000.13,2000.1,2000.09,2000.07,2000.07,2000.06,2000.06,2000.05,2000.05,2000.05,2000.05,2000.05,2000.06,2000.09,2000.13,2000.22,2000.46,2001.28,2006.8,1992.96,1989.16,1992.28,2003.73,2001.48,2000.5,2000.22,2000.12,2000.07,2000.05,2000.03,2000.04,2000.03,2000.02,2000.01,2000.01,2000.01,2000.01,2000.01,2000.01,2000.02,2000.04,2000.03,2000.02,2000.02,2000.02,2000.03,2000.05,2000.06,2000.04,2000.03,2000.03,2000.03,2000.04,2000.06,2000.12,2000.03,2000.03,2000.02,2000.02,2000.02,2000.02,2000.02,2000.01,2000.01,2000.01,2000.01,2000.01,2000.01,2000.01,2000,2000,2000,2000,2000,2000,2000,2000,2000,2000.08,2000.08,2000.01,2000,2000,2000,2000,2000.01,2000.01,2000.02,2000.02,2000.01,2000.01,2000,2000,2000.01,2000.46,2000.04,2000.01,2000,2000,2000,2000,2000,2000,2000,2000,2000.01,2000.05,2000.08,2000.04,2000.02,2000.25,2000.07,2000.01,2000.02,2001.23,2000.54,2000.03,2000.04,2000.08,2000.08,2000.04,2000.01,2000.01,2000,2000,2000,2000,2000,2000,2000,2000,2000,2000,2000,2000,2000,2000.01,2000.01,2000.02,2000.05,2000.13,2000.4,2001.44,2003.42,2002.48,2000.72,2000.22,2000.08,2000.03,2000.02,2000.01,2000.01,2000.01,2000.01,2000.02,2000.06,2000.05,2000.02,2000.01,2000.01,2000,2000,2000,2000,2000,2000,2000,2000,2000,2000.01,2000.11,1998.6,1998.32,2000.12,2000.02,2000.01,2000,2000.01,2000.1,2000.33,2000.02,2000,2000,2000,2000,2000,2000,2000,2000,2000,2000,2000,2000,2000,2000,2000,2000,2000.01,2000.06,2000.02,2000,2000,2000,2000,2000,2000,2000,2000,2000,2000,2000.05,2000.93,2000.05,2000.01,2000,2000,2000,2000,2000,2000,2000,2000,2000,2000,2000,2000,2000,2000,2000,2000,2000,2000,2000.01,2000.01,2000.01,2000.02,2000.01,2000.01,2000.01,2000.03,2000.03,2000.04,2000.04,2000.04,2000.04,2000.04,2000.05,2000.05,2000.06,2000.11,2000.53,1998.43,2000.13,2000.06,2000.05,2000.05,2000.05,2000.05,2000.06,2000.64,2000.14,2000.06,2000.06,2000.08,2000.42,2000.34,2000.08,2000.07,2000.07,2000.07,2000.08,2000.11,2000.2,2000.09,2000.09,2000.09,2000.1,2000.1,2000.1,2000.11,2000.11,2000.11,2000.11,2000.12,2000.12,2000.12,2000.13,2000.13,2000.13,2000.14,2000.14,2000.15,2000.15,2000.16,2000.16,2000.17,2000.18,2000.19,2000.19,2000.19,2000.2,2000.21,2000.22,2000.24,2000.3,1997.98,2000.32,2000.28,2000.28,2000.3,2000.31,2000.32,2000.34,2000.36,2000.37,2000.39,2000.41,2000.43,2000.45,2000.47,2000.49,2000.51,2000.53,2000.55,2000.56,2000.58,2000.6,2000.62,2000.65,2000.67,2000.71,2000.76,2000.76,2000.77,2000.8,2000.83,2000.86,2000.89,2000.92,2000.98,2001.18,2001.03,2001.05,2001.09,2001.12,2001.15,2001.19,2001.22,2001.24,2001.27,2001.29,2001.32,2001.34,2001.36,2001.37,2001.39,2001.4,2001.4,2001.41,2001.41,2001.41,2001.4,2001.4,2001.39,2001.4,2001.41,2001.45,2001.5,2001.47,2001.42,2001.38,2001.27,2001.2,2001.15,2001.11,2001.08,2001.05,2001.01,2000.99,2000.96,2000.91,2000.88,2000.85,2000.82,2000.79,2000.77,2000.74,2000.72,2000.7,2000.68,2000.66,2000.64,2000.62,2000.6,2000.57,2000.55,2000.53,2000.53,2000.64,1998.29,2000.63
2001.22,2001.03,2000.75,2000.44,2000.54,1997.97,2000.4,2000.16,2000.12,2000.1,2000.09,2000.08,2000.1,2000.11,2000.07,2000.05,2000.05,2000.05,2000.05,2000.05,2000.06,2000.08,2000.13,2000.22,2000.45,2001.24,2006.16,1993.58,1989.74,1992.89,2004.5,2001.39,2000.48,2000.22,2000.11,2000.07,2000.04,2000.03,2000.02,2000.02,2000.01,2000.01,2000.01,2000.01,2000.01,2000.01,2000.01,2000.04,1998.16,2000.1,2000.02,2000.02,2000.02,2000.03,2000.35,1999.33,2000.04,2000.03,2000.03,2000.03,2000.03,2000.08,2000.71,2000.03,2000.02,2000.02,2000.02,2000.02,2000.01,2000.01,2000.01,2000.01,2000.01,2000.01,2000.01,2000.01,2000,2000,2000,2000,2000,2000,2000,2000,2000,2000,2000.14,2000.13,2000.01,2000,2000,2000,2000.01,2000.01,2000.05,2000.15,2000.13,2000.04,2000.01,2000,2000,2000,2000.01,2000,2000,2000,2000,2000,2000,2000,2000,2000,2000,2000.01,2000.01,2000.02,2000.03,2000.02,2000.08,2000.03,2000.01,2000.01,2000.05,2000.04,2000.03,2000.13,2000.84,2000.9,2000.14,2000.03,2000.01,2000,2000,2000,2000,2000,2000,2000,2000,2000,2000,2000,2000,2000,2000.01,2000.01,2000.02,2000.04,2000.08,2000.17,2000.34,2000.52,2000.46,2000.42,2000.14,2000.06,2000.03,2000.01,2000.01,2000.01,2000.01,2000.01,2000.08,2001.08,2000.79,2000.23,2000.14,2000.01,2000,2000,2000,2000,2000,2000,2000,2000,2000,2000.01,2000.05,2000.31,2000.32,2000.06,2000.06,2000.03,2000.01,2000.01,2000.01,2000.01,2000.01,2000,2000,2000,2000,2000.01,2000.09,2000.05,2000,2000,2000,2000,2000,2000,2000,2000,2000,2000.04,1997.7,2000.11,2000.01,2000,2000,2000,2000,2000,2000,2000,2000,2000,2000.05,2001.06,2000.05,2000.05,2000.06,2000.01,2000,2000,2000,2000,2000,2000,2000.01,2000.02,2000.02,2000.01,2000,2000,2000,2000,2000,2000,2000.01,2000.01,2000.11,2000.38,2000.03,2000.01,2000.01,2000.03,2000.04,2000.04,2000.04,2000.04,2000.04,2000.05,2000.08,2000.12,2000.06,2000.08,2000.33,2000.47,2000.09,2000.06,2000.05,2000.05,2000.05,2000.05,2000.06,2000.06,2000.06,2000.07,2000.07,2000.08,2000.08,2000.08,2000.07,2000.07,2000.08,2000.08,2000.08,2000.09,2000.09,2000.09,2000.09,2000.1,2000.1,2000.1,2000.11,2000.11,2000.11,2000.11,2000.12,2000.12,2000.12,2000.13,2000.13,2000.14,2000.14,2000.14,2000.14,2000.15,2000.15,2000.16,2000.17,2000.17,2000.18,2000.19,2000.19,2000.2,2000.21,2000.22,2000.22,2000.24,2000.27,2001.07,2000.3,2000.28,2000.29,2000.3,2000.32,2000.33,2000.35,2000.36,2000.38,2000.4,2000.42,2000.44,2000.46,2000.48,2000.5,2000.52,2000.54,2000.56,2000.59,2000.61,2000.63,2000.65,2000.68,2000.7,2000.75,1998.85,2000.88,2000.82,2000.85,2000.88,2000.92,2000.96,2001,2001.04,2001.07,2001.1,2001.13,2001.17,2001.21,2001.25,2001.29,2001.32,2001.35,2001.38,2001.41,2001.43,2001.46,2001.48,2001.5,2001.52,2001.54,2001.55,2001.55,2001.55,2001.54,2001.54,2001.54,2001.54,2001.56,2001.62,2001.92,2002.88,2002.55,2002.47,2000.33,2001.46,2001.3,2001.25,2001.2,2001.16,2001.12,2001.09,2001.05,2001.01,2000.98,2000.94,2000.9,2000.87,2000.84,2000.81,2000.78,2000.75,2000.73,2000.7,2000.68,2000.65,2000.63,2000.6,2000.58,2000.57,2000.56,2000.54,2000.55,2000.58,2000.54
2001.01,2000.71,2000.52,2000.39,2000.32,2000.31,2000.21,2000.15,2000.12,2000.1,2000.09,2000.1,2000.55,2000.11,2000.12,2000.05,2000.05,2000.04,2000.05,2000.05,2000.06,2000.08,2000.12,2000.19,2000.37,2000.85,2002.55,2002.11,1997.63,2001.3,2002.87,2000.91,2000.38,2000.19,2000.1,2000.06,2000.04,2000.03,2000.02,2000.02,2000.01,2000.01,2000.01,2000.01,2000.01,2000.01,2000.01,2000.02,2000.09,2000.03,2000.02,2000.01,2000.02,2000.02,2000.06,2000.1,2000.03,2000.02,2000.02,2000.02,2000.02,2000.03,2000.03,2000.02,2000.02,2000.02,2000.02,2000.01,2000.01,2000.01,2000.01,2000.01,2000.01,2000.01,2000.01,2000.01,2000,2000,2000,2000,2000,2000,2000,2000,2000,2000,2000.01,2000.01,2000,2000,2000,2000,2000.01,2000.03,2000.16,1999.36,2000.58,2000.11,2000.02,2000.01,2000,2000,2000,2000,2000,2000,2000,2000,2000,2000,2000,2000,2000,2000.01,2000.01,2000.08,2000.44,2000.11,2000.01,2000.01,2000,2000,2000.01,2000.01,2000.04,2000.28,1997.41,1997.06,2000.31,2000.04,2000.01,2000.01,2000,2000,2000,2000,2000,2000,2000,2000,2000,2000,2000,2000,2000.01,2000.01,2000.01,2000.02,2000.04,2000.07,2000.11,2000.14,2000.19,1998.05,2000.15,2000.04,2000.02,2000.01,2000.01,2000.01,2000.01,2000.01,2000.09,1999.95,2001.07,2000.45,2000.26,2000.01,2000,2000,2000,2000,2000,2000,2000,2000,2000,2000.01,2000.01,2000.03,2000.03,2000.04,1998.21,2000.15,2000.01,2000.02,2000.04,2000.02,2000.01,2000.01,2000,2000,2000,2000.01,2000.87,2000.25,2000.01,2000,2000,2000,2000,2000,2000,2000,2000,2000.01,2000.07,2000.02,2000,2000,2000,2000,2000,2000,2000,2000,2000,2000,2000.01,2000.02,2000.01,2000.25,2000.71,2000.01,2000,2000,2000,2000,2000,2000,2000.01,2000.72,2001.64,2000.01,2000,2000.01,2000.01,2000,2000,2000,2000.01,2000.02,2000.24,1999.64,2000.04,2000.01,2000.03,2000.04,2000.04,2000.04,2000.04,2000.04,2000.04,2000.05,2000.41,1998.24,2000.09,2000.06,2000.07,2000.07,2000.06,2000.05,2000.05,2000.05,2000.05,2000.05,2000.06,2000.06,2000.06,2000.1,2000.85,2000.52,2000.15,2000.07,2000.07,2000.08,2000.08,2000.08,2000.08,2000.09,2000.09,2000.09,2000.1,2000.1,2000.1,2000.11,2000.11,2000.11,2000.12,2000.12,2000.12,2000.12,2000.13,2000.13,2000.14,2000.14,2000.14,2000.15,2000.15,2000.15,2000.16,2000.16,2000.17,2000.18,2000.18,2000.19,2000.19,2000.2,2000.21,2000.22,2000.23,2000.24,2000.25,2000.27,2000.28,2000.29,2000.3,2000.31,2000.33,2000.34,2000.36,2000.37,2000.39,2000.41,2000.43,2000.45,2000.47,2000.49,2000.51,2000.53,2000.55,2000.59,2000.88,2000.72,2000.66,2000.68,2000.74,2000.79,2000.78,2000.85,2000.85,2000.87,2000.9,2000.94,2000.98,2001.03,2001.73,2001.43,2001.15,2001.18,2001.23,2001.27,2001.32,2001.4,2001.54,2001.46,2001.47,2001.51,2001.54,2001.57,2001.6,2001.63,2001.65,2001.69,2001.87,2001.75,2001.72,2001.7,2001.69,2001.69,2001.69,2001.73,2001.89,2002.04,2003.34,1997.01,1998.65,2002.8,2002.38,2001.55,2001.4,2001.35,2001.3,2001.26,2001.21,2001.17,2001.13,2001.08,2001.04,2001,2000.96,2000.93,2000.89,2000.86,2000.83,2000.8,2000.76,2000.73,2000.7,2000.68,2000.65,2000.63,2000.61,2000.65,2001.05,2000.59,2000.55,2000.54,2000.53
2000.82,2000.59,2000.44,2000.34,2000.27,2000.21,2000.17,2000.14,2000.11,2000.1,2000.41,2000.15,2000.48,2000.83,2000.12,2000.05,2000.04,2000.04,2000.05,2000.05,2000.06,2000.07,2000.1,2000.16,2000.3,2000.56,2001.02,2001.89,2002.56,2001.97,2001.04,2000.51,2000.26,2000.15,2000.09,2000.06,2000.04,2000.03,2000.02,2000.02,2000.01,2000.01,2000.01,2000.01,2000.01,2000.01,2000.01,2000.01,2000.01,2000.01,2000.01,2000.01,2000.01,2000.01,2000.02,2000.02,2000.02,2000.02,2000.04,2000.04,2000.02,2000.02,2000.02,2000.02,2000.02,2000.02,2000.02,2000.01,2000.01,2000.01,2000.01,2000.01,2000.01,2000.01,2000.01,2000,2000,2000,2000,2000,2000,2000,2000,2000,2000,2000,2000,2000,2000.01,2000.01,2000,2000.01,2000.02,2000.13,2000.68,2000.63,2002.01,2000.14,2000.02,2000.01,2000,2000,2000,2000,2000,2000,2000,2000,2000,2000,2000.01,2000.01,2000.01,2000.01,2000.01,2000.08,2000.05,2000.11,2000.01,2000,2000,2000,2000,2000.01,2000.03,2000.14,2001.01,2001.09,2000.15,2000.03,2000.01,2000.01,2000.01,2000.01,2000,2000,2000,2000,2000,2000,2000,2000,2000,2000,2000,2000.01,2000.01,2000.01,2000.02,2000.03,2000.05,2000.07,2000.5,2000.1,2000.04,2000.02,2000.01,2000.01,2000.01,2000,2000.01,2000.01,2000.03,2000.08,2000.07,2000.03,2000.02,2000,2000,2000,2000,2000,2000,2000,2000,2000,2000.01,2000.01,2000.01,2000.01,2000.01,2000.01,2000.05,2000.02,2000.01,2000.09,1997.95,2000.05,2000.04,2000.02,2000.01,2000,2000,2000.01,2000.02,2000.02,2000.01,2000,2000,2000,2000,2000,2000,2000,2000,2000,2000,2000,2000,2000,2000,2000,2000,2000,2000,2000,2000,2000,2000,2000,2000,2000.01,2000.01,2000,2000,2000,2000,2000,2000,2000,2000.03,2000.13,2000.08,2000.01,2000.01,2000.43,2000.15,2000,2000,2000,2000.01,2000.01,2000.02,2000.04,2000.01,2000.01,2000.03,2000.04,2000.04,2000.04,2000.04,2000.04,2000.04,2000.05,2000.1,2000.18,2000.07,2000.05,2000.05,2000.05,2000.05,2000.05,2000.06,2000.06,2000.06,2000.06,2000.06,2000.06,2000.06,2000.09,2000.33,2000.14,2000.1,2000.07,2000.07,2000.08,2000.08,2000.08,2000.09,2000.09,2000.09,2000.1,2000.1,2000.1,2000.11,2000.11,2000.11,2000.12,2000.12,2000.12,2000.13,2000.13,2000.13,2000.14,2000.15,2000.17,2000.15,2000.15,2000.15,2000.16,2000.16,2000.17,2000.17,2000.18,2000.19,2000.19,2000.2,2000.21,2000.22,2000.23,2000.23,2000.24,2000.25,2000.27,2000.28,2000.29,2000.31,2000.32,2000.33,2000.35,2000.37,2000.38,2000.4,2000.42,2000.44,2000.46,2000.48,2000.5,2000.53,2000.55,2000.57,2000.61,2001.34,2000.8,2000.69,2000.72,2000.91,2001.14,2000.82,2000.85,2000.88,2000.92,2000.97,2001.01,2001.05,2001.1,2001.39,2001.35,2001.24,2001.28,2001.33,2001.37,2001.43,2001.77,1998.73,2001.67,2001.61,2001.65,2001.69,2001.72,2001.75,2001.78,2001.82,2001.9,2001.48,2002.78,2002.03,2001.89,2001.87,2001.86,2001.87,2002.02,2002.41,2001.41,2003.48,1997.96,1999.63,2002.4,2001.77,2001.61,2001.52,2001.46,2001.41,2001.36,2001.31,2001.26,2001.22,2001.17,2001.12,2001.07,2001.03,2000.99,2000.95,2000.91,2000.88,2000.84,2000.81,2000.78,2000.75,2000.71,2000.68,2000.66,2000.64,2000.73,1999.58,2000.62,2000.56,2000.55,2000.54
