2000.34,2000.21,2000.15,2000.14,2000.15,2000.18,2000.3,2000.22,2000.14,2000.12,2000.12,2000.12,2000.12,2000.12,2000.18,2000.43,2000.15,2000.13,2000.14,2000.13,2000.24,1997.93,2000.3,2000.12,2000.11,2000.11,2000.11,2000.12,2000.14,2000.18,2000.73,2000.38,2000.12,2000.12,2000.12,2000.12,2000.12,2000.13,2000.13,2000.13,2000.13,2000.13,2000.13,2000.14,2000.15,2000.15,2000.16,2000.18,2000.21,2000.44,2000.44,2001.15,2002.97,2001.41,2001.7,2000.6,2000.44,2000.29,2000.26,2000.25,2000.26,2000.26,2000.26,2000.27,2000.27,2000.27,2000.28,2000.3,2000.34,2000.37,2000.27,2000.26,2000.27,2000.43,1997.37,2000.52,2000.28,2000.28,2000.33,2001.03,1996.74,1997.06,2000.6,2000.35,2000.33,2000.33,2000.33,2000.44,1997.76,2000.58,2000.36,2000.35,2000.36,2000.36,2000.37,2000.37,2000.98,2000.63,2000.4,2000.4,2000.41,2000.42,2000.43,2000.45,2000.46,2000.48,2000.51,2000.9,1996.95,2001.42,2000.59,2000.57,2000.59,2000.68,1999.66,2000.7,2000.85,2000.72,2000.78,2000.72,2000.73,2000.75,2000.78,2000.81,2000.84,2000.9,2001.05,2001.65,1998.15,1995.86,2003.1,2001.33,2001.36,1999.28,2002.28,2001.4,2001.41,2001.48,2001.57,2001.65,2001.71,2001.76,2001.79,2001.82,2001.96,2003.63,2002.21,2002.38,2003.08,2004.78,2008.97,2007.2,2006.64,2010.33,2005.41,2003.45,2002.64,2002.31,2002.44,2002.41,2002.26,2002.06,2002.07,2002.09,2002.12,2002.17,2002.19,2002.21,2002.25,2002.34,2002.35,2002.76,2002.65,2002.45,2002.48,2002.58,2003.95,1998.43,2005.33,2002.74,2002.62,2002.61,2002.62,2002.58,2002.58,2002.59,2002.59,2002.59,2002.66,2001.96,2002.64,2002.58,2002.57,2002.59,2002.6,2002.55,2002.52,2002.5,2002.51,2002.49,2002.47,2002.45,2002.43,2002.44,2002.99,2003.1,2002.43,2002.35,2002.33,2002.31,2002.29,2002.27,2002.24,2002.21,2002.18,2002.13,2002.09,2002.04,2001.99,2001.94,2001.9,2001.86,2001.82,2001.78,2001.71,2001.64,2001.58,2001.53,2001.49,2001.44,2001.4,2001.36,2001.33,2001.3,2001.28,2001.26,2001.45,1998.9,1998.62,2001.39,2001.11,2001.05,2001.02,2000.99,2000.96,2000.94,2000.93,2000.91,2000.89,2000.86,2000.83,2000.8,2000.78,2000.77,2000.76,2000.76,2000.75,2000.77,2000.85,2000.68,2000.65,2000.64,2000.63,2000.63,2000.94,1997.4,2000.97,1999.78,2000.57,2000.54,2000.52,2000.51,2000.5,2000.51,2000.54,2000.55,2000.74,2000.9,2000.62,2000.5,2000.49,2000.7,2000.95,2001.11,2000.49,2000.43,2000.43,2000.44,2000.65,2000.9,2000.46,2000.44,2000.44,2000.43,2000.43,2000.43,2000.44,2000.66,2000.98,2001.45,1998.89,2000.54,2000.59,2000.77,2001.17,2002.1,2004.46,2008.55,2004.58,2007.25,2005.51,2003.36,2001.43,2000.82,2000.58,2000.47,2000.41,2000.38,2000.35,2000.35,2000.34,2000.33,2000.33,2000.32,2000.3,2000.3,2000.32,2000.33,2000.46,2000.26,2000.23,2000.22,2000.22,2000.22,2000.21,2000.21,2000.22,2000.31,2000.25,2000.2,2000.2,2000.2,2000.21,2000.25,2000.24,2000.43,1997.29,2000.58,2000.25,1998.16,2000.25,2000.21,2000.21,2000.22,2000.24,2000.26,2000.26,2000.29,2000.28,2000.27,2001.04,2000.18,2000.16,2000.16,2000.17,2000.23,2000.83,2001.16,1998.73,2000.16,2000.13,2000.14,1998.72,2000.17,2000.12,2000.11,2000.1,2000.1,2000.1,2000.1
1999.04,2000.47,2000.17,2000.15,2000.15,2000.15,2000.15,2000.14,2000.13,2000.12,2000.12,2000.11,2000.11,2000.12,2000.12,2000.13,2000.14,2000.18,2000.3,2000.21,2000.19,2000.68,2000.19,2000.12,2000.11,2000.11,2000.11,2000.12,2000.26,1999.97,2000.22,2000.18,2000.12,2000.12,2000.12,2000.12,2000.13,2000.13,2000.15,2000.16,2000.14,2000.14,2000.14,2000.14,2000.15,2000.18,2000.23,2000.2,2000.24,2000.02,2000.62,2002.64,1994.85,1993.56,2001.51,2000.84,2000.39,2000.3,2000.28,2000.28,2000.28,2000.29,2000.3,2000.3,2000.3,2000.29,2000.29,2000.28,2000.28,2000.27,2000.26,2000.26,2000.27,2000.34,2001.05,2000.35,2000.28,2000.29,2000.33,2000.62,1997.4,1998.08,2000.6,2000.35,2000.32,2000.32,2000.33,2000.35,2000.43,2000.38,2000.35,2000.36,2000.36,2000.37,2000.38,2000.39,2000.41,2000.4,2000.4,2000.41,2000.42,2000.43,2000.44,2000.45,2000.47,2000.48,2000.52,2000.77,2001.71,2000.8,2000.58,2000.58,2000.59,2000.62,2000.68,2000.66,2000.68,2000.75,1998.53,2000.76,2000.74,2000.77,2000.8,2000.83,2000.87,2000.95,1999.06,2001.44,2000.46,2002.97,2001.65,2001.29,2001.36,2003.5,2002.06,2001.5,2001.56,2001.68,2001.82,2001.96,2002.08,2002.13,2002.15,2003.92,2002.19,2002.06,2000.71,2002.26,2002.58,2003.18,2004.11,2005.03,2005.15,2004.38,2003.45,2002.81,2002.45,2002.28,2002.28,2002.24,2002.14,2002.14,2002.16,2002.19,2002.26,2002.78,2002.47,2002.33,2002.41,2000.26,2002.66,2003.01,2003.35,2002.57,2002.6,2002.68,2003.13,2005.38,2003.85,2003.33,2002.9,2002.9,2003.36,2002.73,2002.73,2002.73,2002.74,2002.74,2002.75,2002.75,2002.73,2002.72,2002.73,2002.92,2001.76,2002.73,2002.69,2002.65,2002.62,2002.62,2002.6,2002.57,2002.55,2002.56,2003.2,2002.55,2002.52,2002.43,2002.4,2002.37,2002.34,2002.31,2002.28,2002.25,2002.21,2002.16,2002.12,2002.07,2002.02,2001.97,2001.92,2001.87,2001.83,2001.78,2001.73,2001.68,2001.62,2001.57,2001.52,2001.48,2001.44,2001.4,2001.36,2001.33,2001.3,2001.28,2001.32,2001.66,2001.65,2001.25,2001.15,2001.1,2001.05,2001.02,2000.99,2000.97,2000.98,2001.19,2001.2,2000.92,2000.85,2000.83,2000.81,2000.79,2000.81,2001.54,2001.26,2000.95,2000.7,2000.7,2000.67,2000.65,2000.64,2000.64,2000.78,1999.53,2000.76,2000.59,2000.56,2000.54,2000.53,2000.52,2000.51,2000.51,2000.52,2000.65,2001.49,1997.35,2001.65,2000.54,2000.48,2000.49,2000.54,2000.5,2000.45,2000.43,2000.42,2000.43,2000.43,2000.43,2000.42,2000.41,2000.41,2000.41,2000.4,2000.4,2000.42,2000.76,1998.44,2000.71,2000.63,2000.54,2000.67,2000.95,2001.56,2003.53,2006.23,1996.44,1993.12,1995.36,2003.75,2001.8,2002,2000.98,2000.66,2000.56,2000.48,2000.41,2000.39,2000.44,2000.41,2000.38,2000.86,2000.67,2000.33,2000.3,2000.29,2000.3,2000.63,2000.26,2000.24,2000.23,2000.23,2000.29,2000.22,2000.21,2000.24,1998.53,2000.55,2000.21,2000.21,2000.2,2000.22,1999.72,2000.3,2000.26,2000.36,2000.26,2000.22,2000.25,2000.21,2000.2,2000.21,2000.21,2000.22,2000.23,2000.23,2000.74,2000.05,2000.42,1999.65,2000.17,2000.16,2000.21,2000.19,2000.29,1998.72,1997.24,2000.4,2000.15,2000.12,2000.12,2000.15,2000.17,2000.35,2000.17,2000.11,2000.1,2000.09,2000.09
2000.26,2000.22,2000.18,2000.17,2000.16,2000.15,2000.14,2000.14,2000.13,2000.12,2000.12,2000.12,2000.11,2000.12,2000.13,2000.23,2000.16,2000.48,1997.6,2000.91,2000.17,2000.14,2000.12,2000.11,2000.11,2000.11,2000.11,2000.11,2000.12,2000.13,2000.12,2000.12,2000.12,2000.12,2000.12,2000.12,2000.13,2000.15,2000.59,2000.98,2000.18,2000.14,2000.14,2000.15,2000.18,2000.29,1997.93,2000.27,2000.24,2000.31,2000.56,2002.18,1996.27,1994.95,2003.19,2000.8,2000.4,2000.35,2000.97,2000.32,2000.33,2000.35,2000.36,2000.36,2000.35,2000.33,2000.31,2000.29,2000.28,2000.28,2000.28,2000.28,2000.27,2000.28,2000.29,2000.28,2000.28,2000.29,2000.31,2000.4,2000.62,2000.69,2000.4,2000.33,2000.32,2000.32,2000.33,2000.34,2000.34,2000.35,2000.35,2000.36,2000.37,2000.38,2000.38,2000.39,2000.4,2000.41,2000.42,2000.42,2000.48,2000.45,2000.45,2000.46,2000.48,2000.49,2000.53,1999.22,2000.75,2000.59,2000.58,2000.58,2000.6,2000.62,2000.66,2000.69,2000.69,2000.72,2000.98,2000.76,2000.77,2000.79,2000.82,2000.85,2000.89,2000.95,2001.14,2001.12,2001.24,2001.31,2001.3,2001.28,2001.34,2001.45,2001.53,2001.62,2001.77,2001.98,2002.26,2002.6,2002.9,2002.98,2002.84,2001.79,2002.53,2002.17,2002.14,2002.19,2002.33,2002.56,2002.85,2003.08,2003.16,2003.06,2002.77,2002.51,2002.36,2002.27,2002.23,2002.22,2002.22,2002.23,2002.26,2002.3,2002.43,2000.89,2002.5,2002.46,2002.51,2002.69,2002.63,2002.66,2002.69,2002.71,2002.74,2002.8,2002.97,2003.81,2000.28,2001.18,2003.48,2002.96,2002.9,2002.89,2002.89,2002.9,2002.93,2002.92,2002.9,2002.89,2002.88,2002.88,2002.93,2003.01,2003.03,2003.02,2002.92,2002.83,2002.77,2002.74,2002.73,2002.7,2002.68,2002.66,2002.66,2002.64,2002.57,2002.52,2002.49,2002.45,2002.41,2002.38,2002.34,2002.3,2002.26,2002.22,2002.17,2002.12,2002.07,2002.01,2001.96,2001.91,2001.86,2001.82,2001.77,2001.94,2001.69,2001.62,2001.57,2001.52,2001.48,2001.44,2001.4,2001.37,2001.33,2001.3,2001.28,2001.27,2001.25,2001.25,2001.89,2001.46,2001.1,2001.05,2001.02,2001,2001.06,1999.6,1999.03,2001.02,2000.88,2000.85,2000.83,2000.82,2000.89,2000.44,1999.66,2000.86,2000.75,2000.73,2000.72,2000.68,2000.66,2000.69,2000.78,2000.72,2000.63,2000.6,2000.59,2000.55,2000.54,2000.53,2000.52,2000.51,2000.52,2000.64,2002.69,1998.37,2001.36,2000.54,2000.47,2000.46,2000.46,2000.45,2000.44,2000.43,2000.42,2000.42,2000.42,2000.42,2000.41,2000.4,2000.4,2000.4,2000.39,2000.39,2000.4,2000.43,2000.49,2000.46,2000.47,2000.55,2001.03,1999.49,2001.88,2005.03,2000.29,1991.27,1988.17,1990.27,1998.04,2006.72,2002.19,2001.09,2000.72,2000.97,2000.7,2000.46,2000.45,2001.62,2000.69,2000.44,2000.54,2000.48,2000.36,2000.33,2000.31,2000.29,2000.28,2000.27,2000.25,2000.24,2000.28,1998.02,2000.27,2000.21,2000.22,2000.3,2000.28,2000.21,2000.21,2000.22,2000.24,2000.27,2000.28,2000.26,2000.24,2000.22,2000.21,2000.21,2000.21,2000.21,2000.21,2000.21,2000.23,2000.23,2000.29,2000.64,2002.35,2000.39,2000.24,2000.17,2000.16,2001.21,2000.33,2000.21,2000.58,2000.71,2000.22,2000.13,2000.12,2000.12,2000.14,2000.54,1996.14,2000.28,2000.11,2000.1,2000.1,2000.1
2000.26,2000.24,2000.21,2000.2,2000.18,2000.17,2000.19,2000.23,2000.14,2000.12,2000.12,2000.12,2000.12,2000.14,2000.16,1998.63,2000.19,2000.38,1999.73,2000.7,2000.34,2000.13,2000.11,2000.11,2000.11,2000.11,2000.11,2000.11,2000.11,2000.11,2000.12,2000.12,2000.12,2000.12,2000.12,2000.12,2000.12,2000.15,2001.09,2000.95,2000.24,2000.15,2000.15,2000.17,2000.26,2000.97,2001.04,2000.32,2000.25,2000.28,2000.42,2000.88,2002.21,2000.15,2001.23,2000.72,2000.41,2000.36,2000.46,2000.38,2000.42,2000.54,2000.5,2000.48,2000.45,2000.4,2000.36,2000.33,2000.3,2000.29,2000.34,2000.95,2000.3,2000.28,2000.28,2000.28,2000.28,2000.29,2000.32,2000.94,2000.47,2000.36,2000.34,2000.32,2000.32,2000.32,2000.33,2000.34,2000.34,2000.35,2000.36,2000.37,2000.38,2000.38,2000.39,2000.4,2000.41,2000.42,2000.43,2000.47,1999.34,2000.47,2000.46,2000.47,2000.48,2000.5,2000.52,2000.56,2000.56,2000.57,2000.58,2000.59,2000.61,2000.64,2000.94,1999.74,2000.73,2000.72,2002.04,2000.8,2000.86,2000.82,2000.84,2000.87,2000.91,2000.95,2001,2001.06,2001.13,2001.24,2000.38,2001.38,2001.4,2001.51,2001.65,2001.83,2002.08,2002.46,2003.1,2004.21,2005.63,2005.94,2004.7,2003.47,2002.74,2002.39,2002.24,2002.21,2002.24,2002.33,2002.43,2002.53,2002.76,2001.07,2002.97,2002.41,2002.33,2002.3,2002.29,2002.29,2002.31,2002.33,2002.37,2002.41,2002.46,2002.53,2002.55,2002.6,2002.66,2002.69,2002.73,2002.77,2002.83,2002.94,2003,2002.98,2003.09,2004.13,1998.77,1999.67,2003.8,2003.14,2003.08,2003.07,2003.07,2003.13,2002.09,2004.84,2003.09,2003.07,2003.07,2003.11,2003.25,2003.6,2003.98,2004.7,2003.55,2003.07,2002.94,2002.89,2002.85,2002.84,2002.81,2002.78,2002.75,2002.71,2002.67,2002.63,2002.59,2002.55,2002.51,2002.46,2002.41,2002.37,2002.33,2002.28,2002.23,2002.18,2002.13,2002.08,2002.02,2001.97,2001.91,2001.87,2001.83,2002.2,2001.75,2001.67,2001.62,2001.57,2001.53,2001.48,2001.45,2001.41,2001.37,2001.35,2001.31,2001.27,2001.24,2001.31,1999.25,2002.63,2001.15,2001.08,2001.04,2001.02,2001.04,2001.49,2001.54,2000.99,2000.91,2000.89,2000.94,2000.88,2000.91,2000.57,2001.98,2000.83,2000.78,2001.25,2001.49,2000.77,2000.71,2000.99,1998.22,2001.07,2000.64,2001.09,2001.44,2000.57,2000.55,2000.53,2000.52,2000.52,2000.52,2000.55,2000.68,2000.77,2000.59,2000.5,2000.47,2000.47,2000.46,2000.46,2000.45,2000.45,2000.43,2000.43,2000.63,2000.66,2000.41,2000.4,2000.41,2000.52,2000.43,2000.4,2000.41,2000.4,2000.4,2000.42,2000.46,2000.56,2000.83,2001.3,2001.86,2004.91,2000.66,1991.6,1988.49,1990.59,1998.41,2006.51,2002.21,2001.11,2000.73,2000.59,2000.54,2000.52,2000.53,2000.55,2000.55,2000.54,2000.5,2000.46,2000.41,2000.37,2000.34,2000.32,2000.31,2000.31,2000.29,2000.26,2000.26,1999.74,2000.25,2000.21,2000.21,2000.44,2000.82,2000.22,2000.22,2000.25,2000.32,2000.44,2000.49,2000.39,2000.29,2000.24,2000.22,2000.21,2000.21,2000.22,2000.22,2000.2,2000.23,2000.31,2000.64,2001.2,2001.56,2001,2000.21,2000.16,2000.15,2000.15,2000.15,2000.15,2000.17,2000.17,2000.14,2000.12,2000.11,2000.11,2000.14,2000.84,1998.24,2000.28,2000.12,2000.1,2000.15,2000.22
2000.34,2000.3,2000.27,2000.25,2000.38,2000.27,2000.29,2000.83,2000.14,2000.13,2000.12,2000.12,2000.13,1999.66,2000.27,2000.14,2000.15,2000.18,2000.22,2000.3,2000.47,2000.12,2000.11,2000.11,2000.11,2000.11,2000.11,2000.11,2000.11,2000.11,2000.11,2000.12,2000.12,2000.12,2000.11,2000.12,2000.12,2000.13,2000.19,2000.28,2000.17,2000.15,2000.15,2000.19,2000.4,1997.74,1997.68,2000.44,2000.25,2000.27,2000.45,2000.59,2000.63,2000.82,2000.56,2000.56,2000.45,2000.37,2000.41,2000.47,2000.6,1999.2,2000.83,2000.78,2000.67,2000.54,2000.44,2000.38,2000.33,2000.31,2000.36,2001.6,2000.3,2000.28,2000.28,2000.28,2000.29,2000.3,2000.32,2000.65,2000.42,2000.37,2000.38,2000.33,2000.33,2000.33,2000.33,2000.34,2000.35,2000.36,2000.37,2000.38,2000.38,2000.39,2000.4,2000.41,2000.41,2000.42,2000.44,2000.87,2001.17,2000.48,2000.48,2000.48,2000.49,2000.51,2000.52,2000.55,2000.56,2000.57,2000.59,2000.6,2000.62,2000.65,2000.77,2001.05,2000.72,2000.73,2000.75,2000.84,1998.41,2000.9,2000.89,2000.91,2000.96,2001,2001.03,2001.08,2001.14,2001.23,2001.73,2001.42,2001.5,2001.64,2001.84,2002.11,2002.51,2003.21,2005.29,2010.18,2005.21,2004.14,2009.96,2005.65,2003.45,2002.7,2002.4,2002.28,2002.25,2002.26,2002.3,2002.43,2002.62,2001.67,2003.15,2002.43,2002.35,2002.35,2002.36,2002.38,2002.41,2002.44,2002.49,2002.54,2002.59,2002.64,2002.68,2002.75,2000.82,2002.86,2002.88,2002.93,2003.07,2006.03,2003.41,2003.31,2003.23,2003.5,2004.48,2004.32,2003.49,2003.29,2003.25,2003.26,2003.26,2003.29,2003.47,2003.44,2003.28,2003.27,2003.26,2003.35,2003.5,2003.77,2001.72,1998.15,2006.29,2003.38,2003.13,2003.06,2003.01,2002.97,2002.93,2002.92,2002.88,2002.84,2002.8,2002.75,2002.71,2002.66,2002.61,2002.57,2002.51,2002.46,2002.41,2002.36,2002.3,2002.25,2002.2,2002.15,2002.09,2002.04,2001.98,2001.93,2001.88,2001.83,2001.78,2001.72,2001.67,2001.63,2001.58,2001.53,2001.49,2001.45,2001.45,2002.21,2001.42,2001.31,2001.27,2001.26,2001.34,2001.26,2001.15,2001.11,2001.07,2001.04,2001.02,2001.02,2001,2000.97,2000.95,2000.97,1999.32,2001.19,2001.12,2000.96,2000.86,2000.79,2000.81,2001.42,1999.79,2001.24,2000.82,2000.9,2000.47,2000.93,2000.64,2000.66,2000.66,2000.57,2000.55,2000.54,2000.54,2000.53,2000.52,2000.52,2000.53,2000.52,2000.5,2000.48,2000.5,1998.81,2000.5,2000.5,2000.51,2000.5,2000.47,2000.45,2000.56,2000.56,2000.4,2000.4,2000.47,1997.69,2000.61,2000.64,2001.08,2000.42,2000.4,2000.42,2000.46,2000.62,2001.92,2003.12,2001.6,2003.37,2007.46,1997.5,1994.13,1996.41,2005,2000.32,2003.51,2001.05,2000.73,2000.62,2000.6,2000.63,2000.69,2000.75,2000.77,2000.74,2000.68,2000.59,2000.5,2000.44,2000.39,2000.37,2000.42,2000.6,2000.54,2000.33,2000.26,2000.24,2000.25,2000.22,2000.21,2000.21,2000.22,2000.22,2000.24,2000.32,2000.6,2001.64,2002.36,2001.03,2000.43,2000.27,2000.24,2000.23,2000.23,2000.25,2000.23,2000.24,2000.27,2000.47,2002.57,1995.78,2001.5,2000.49,2000.22,2000.17,2000.15,2000.14,2000.14,2000.14,2000.15,2000.14,2000.12,2000.12,2000.11,2000.11,2000.12,2000.18,2000.45,2000.45,2000.12,2000.12,1998.6,1998.88
2000.5,2000.43,2000.36,2000.32,1999.22,2000.76,2000.2,2000.17,2000.15,2000.13,2000.13,2000.13,2000.12,2000.15,2000.13,2000.14,2000.91,2000.71,2000.15,2000.14,2000.13,2000.12,2000.11,2000.11,2000.11,2000.11,2000.11,2000.11,2000.11,2000.11,2000.11,2000.11,2000.12,2000.11,2000.11,2000.12,2000.12,2000.12,2000.13,2000.14,2000.14,2000.16,2000.17,2000.19,2000.28,2000.91,2000.93,2000.33,2000.25,2000.27,2000.41,2000.48,2000.41,2000.43,2000.42,2000.41,2000.4,2000.42,2000.49,2000.65,2000.95,2001.42,2001.81,2001.72,2001.25,2000.84,2000.58,2000.44,2000.37,2000.33,2000.31,2000.31,2000.29,2000.29,2000.28,2000.29,2000.31,2000.45,2000.39,2000.35,2000.34,2000.75,2001.19,2000.75,2000.34,2000.33,2000.34,2000.35,2000.35,2000.37,2000.39,2000.46,2000.42,2000.42,2000.41,2000.41,2000.42,2000.43,2000.45,2000.48,2000.49,2000.48,2000.49,2000.5,2000.51,2000.52,2000.56,2000.34,2000.62,2000.59,2000.6,2000.62,2000.64,2000.66,2000.68,2000.7,2000.72,2000.74,2000.77,2000.8,2000.87,2001.4,2001.46,2000.98,2001.37,2001.49,2001.11,2001.13,2001.18,2001.25,2001.35,2001.47,2001.62,2001.83,2002.11,2002.52,2003.13,2004.27,2007.88,2003.8,1996.6,1995.67,2000.73,2010.65,2004.38,2003.07,2002.6,2002.39,2002.3,2002.28,2002.29,2002.65,2002.57,2002.5,2000.97,2002.49,2002.41,2002.42,2002.45,2002.48,2002.52,2002.57,2002.62,2002.68,2002.75,2002.78,2002.83,2002.89,2002.96,2003.01,2003.07,2003.13,2003.3,2003.04,2000.76,2003.58,2003.38,2003.44,2003.57,2003.66,2003.51,2003.46,2003.45,2003.46,2003.46,2003.47,2003.48,2003.48,2003.47,2003.47,2003.47,2003.47,2003.51,2003.89,2003.04,1999.34,2007.82,2003.54,2003.32,2003.24,2003.2,2003.27,2003.13,2003.06,2003.03,2002.98,2002.93,2002.88,2002.83,2002.78,2002.73,2002.68,2002.62,2002.57,2002.51,2002.45,2002.39,2002.33,2002.28,2002.22,2002.17,2002.11,2002.06,2002.03,2002.05,2001.93,2001.85,2001.79,2001.73,2001.68,2001.63,2001.59,2001.57,2001.52,2001.5,2002.84,2001.46,2001.34,2001.31,2001.28,2001.25,2001.22,2001.21,2001.66,2001.14,2001.06,2001.04,2001.02,2001.01,2001.02,2001.08,2001.16,2001.17,2001.06,2000.93,2000.85,2000.81,2000.78,2000.78,2001.36,2001.15,2000.74,2000.7,2000.7,2000.72,2000.67,2000.62,2000.6,2000.59,2000.57,2000.56,2000.56,2000.56,2000.56,2000.55,2000.54,2000.52,2000.5,2000.49,2000.48,2000.49,2000.55,2000.54,2000.63,2000.75,2000.75,2000.61,2000.5,2000.45,2000.42,2000.4,2000.4,2000.46,2000.52,2000.43,2000.6,2001.88,2000.42,2000.4,2000.42,2000.46,2000.63,2000.15,2001.24,2001.26,2002.15,2004.16,2008.53,2006.58,2009.34,2004.66,2002.66,2002.13,2000.97,2000.71,2000.66,2000.71,2000.83,2001.02,2001.21,2001.32,2001.25,2001.06,2000.84,2000.67,2001.17,2000.59,2000.48,2000.85,1999,2000.4,2000.56,2000.28,2000.24,1999.24,2000.28,2000.21,2000.21,2000.21,2000.23,2000.41,2000.4,2001.27,1997.37,1994.75,2002.4,2000.65,2000.32,2000.27,2000.25,2000.27,2000.35,2000.42,2000.34,2000.36,2000.52,2002.38,1995.63,2001.3,2000.49,2000.22,2000.17,2000.15,2000.14,2000.14,2000.18,1999.82,2000.17,2000.12,2000.11,2000.11,2000.11,2000.11,2000.12,2000.48,2000.62,2000.12,2000.11,2000.12,2000.18
2000.83,2000.66,2000.5,2000.39,2000.35,2000.27,2000.21,2000.17,2000.15,2000.15,2000.25,2000.2,2000.13,2000.12,2000.12,2000.14,2000.51,2000.38,2000.14,2000.13,2000.17,2000.15,2000.12,2000.13,2000.12,2000.12,2000.12,2000.11,2000.11,2000.11,2000.11,2000.11,2000.11,2000.14,2000.12,2000.12,2000.12,2000.12,2000.13,2000.15,2000.16,2000.17,2000.18,2000.19,2000.21,2000.26,2000.3,1998.62,2000.26,2000.28,2000.32,2000.37,2000.43,2000.47,2000.48,2000.47,2000.46,2000.49,2000.62,2000.95,2001.84,2004.16,2007.67,2006.99,2003.22,2001.46,2000.79,2000.54,2000.43,2000.36,2000.33,2000.32,2000.3,2000.29,2000.29,2000.3,2000.33,1999.07,2000.83,2000.91,2000.39,2000.35,2000.37,2000.95,2000.35,2000.34,2000.34,2000.35,2000.36,2000.37,2000.46,1997.8,2000.73,2000.88,2000.42,2000.42,2000.43,2000.44,2000.45,2000.47,2000.48,2000.5,2000.59,2000.52,2000.52,2000.54,2000.65,1998.98,2000.62,2000.6,2000.61,2000.63,2000.65,2000.67,2000.69,2000.71,2000.73,2000.76,2000.78,2000.81,2000.84,2000.9,2000.94,2001.28,2002.15,2002.38,2001.16,1999.39,2001.24,2001.31,2001.42,2001.57,2001.77,2002.06,2002.48,2003.11,2004.09,2005.78,2010.67,2001.4,1994.46,1993.56,1998.46,2010.67,2005.08,2003.41,2003.06,2002.55,2002.39,2002.34,2002.34,2002.37,2002.41,2002.43,2002.47,2002.49,2002.5,2002.53,2002.56,2002.6,2002.65,2002.7,2002.76,2003.03,2002.51,2002.96,2003,2003.07,2003.14,2003.2,2003.27,2003.34,2003.43,2003.66,2003.77,2003.59,2003.56,2003.6,2003.89,2001.32,2003.75,2003.68,2003.67,2003.67,2003.69,2003.71,2003.76,2003.73,2003.71,2004.3,2003.78,2003.68,2003.69,2003.8,2004.2,2004.51,2003.94,2003.61,2003.49,2003.43,2003.4,2003.46,2003.47,2003.25,2003.18,2003.12,2003.09,2003.03,2002.97,2002.91,2002.86,2002.8,2002.74,2002.68,2002.62,2002.56,2002.49,2002.43,2002.36,2002.3,2002.25,2002.19,2002.13,2002.19,2001.85,2002.76,2002.62,2001.88,2001.79,2001.74,2001.69,2001.66,2002.27,2002.17,2001.59,2001.71,2001.43,2001.39,2001.37,2001.4,2001.34,2001.34,2000.86,2001.94,2001.17,2001.09,2001.07,2001.07,2001.06,2001.15,2001.74,2003.04,2003.55,2002.16,2001.1,2000.89,2000.82,2000.79,2000.77,2000.77,2000.75,2000.71,2000.69,2000.68,2000.66,2000.68,2000.66,2000.61,2000.59,2000.58,2000.58,2000.59,2000.62,2000.65,2000.65,2000.61,2000.62,2000.54,2000.5,2000.49,2000.5,2000.55,2000.67,2001.14,2002.45,2002.48,2001.13,2000.62,2000.47,2000.42,2000.4,2000.4,2000.42,2000.45,2000.39,2000.4,2000.41,2000.42,2000.46,2000.45,2000.48,1999.24,2000.69,2000.8,2000.96,2001.9,2001.41,2002.68,2003.04,2002.71,2001.97,2001.35,2001.03,2000.78,2000.69,2000.73,2000.89,2001.21,2001.77,2002.5,2002.98,2002.75,2002.03,2001.35,2000.93,2001.14,2000.66,2000.68,2002.58,1996.77,1998.04,2000.65,2000.29,2000.24,2000.23,2000.21,2000.21,2000.39,2000.42,2000.24,2000.25,2000.42,2001.32,1997.04,1994.44,2002.02,2000.68,2000.41,2000.52,2000.32,2000.33,2002.22,2002.75,2000.65,2000.61,2000.48,2000.77,2001.31,2000.74,2000.33,2000.21,2000.17,2000.15,2000.14,2000.13,2000.16,2000.66,2000.16,2000.12,2000.11,2000.11,2000.11,2000.1,2000.11,2000.11,2000.11,2000.11,2000.33,2000.17,2000.1
2001.61,2001.12,2000.75,2000.52,2000.37,2000.28,2000.23,2000.2,2000.17,2000.16,2001.49,2000.42,2000.2,2000.13,2000.12,2000.15,2000.31,2000.37,2000.17,2000.17,2000.14,2000.86,2000.15,1999.58,2000.23,2000.2,2000.14,2000.12,2000.1,2000.11,2000.11,2000.11,2000.12,1998.41,2000.14,2000.12,2000.12,2000.12,2000.15,2000.15,2000.16,2000.19,2001.73,2000.27,2000.22,2000.22,2000.23,2000.27,2000.26,2000.3,2000.37,2000.48,2000.61,2000.72,2000.74,2000.66,2000.59,2000.59,2000.76,2001.37,2003.89,2000.79,1994.9,1995.92,2004.27,2002.64,2001.06,2000.76,2000.04,2000.41,2000.41,2000.38,2000.33,2000.31,2000.3,2000.3,2000.32,2000.39,2001.11,1997.54,2000.48,2000.34,2000.34,2000.34,2000.34,2000.35,2000.35,2000.36,2000.37,2000.38,2000.41,2000.49,2000.44,2000.43,2000.42,2000.43,2000.44,2000.45,2000.47,2000.5,2000.5,2000.53,2000.63,2000.53,2000.53,2000.55,2000.57,2000.61,2000.6,2000.61,2000.62,2000.64,2000.66,2000.68,2000.7,2000.72,2000.75,2000.77,2000.8,2000.83,2000.86,2000.9,2000.94,2001.33,2001.98,2001.11,2001.14,2001.24,2001.27,2001.4,2001.89,2001.69,2001.95,2002.35,2002.98,2004.03,2006.2,2014.27,2013.81,2005.5,1998.14,1997.2,2002.37,2011.09,2005.3,2003.69,2003.31,2002.72,2002.51,2002.43,2002.41,2002.54,2003.11,2002.58,2002.6,2002.79,2002.75,2002.68,2002.69,2002.73,2002.78,2002.83,2002.9,2003.05,2003.32,2003.13,2003.19,2003.26,2003.34,2003.43,2003.51,2003.59,2003.65,2003.71,2003.76,2003.78,2003.8,2003.84,2003.94,2004.3,2004.43,2004.01,2003.93,2003.93,2003.94,2004.02,2001.7,2004.16,2003.96,2003.99,2003.95,2003.92,2003.91,2003.91,2003.94,2003.93,2003.85,2003.76,2003.69,2003.63,2003.58,2003.56,2003.89,2003.63,2003.37,2003.3,2003.24,2003.2,2003.14,2003.07,2003,2002.93,2002.87,2002.8,2002.74,2002.67,2002.61,2002.54,2002.47,2002.4,2002.33,2002.27,2002.21,2002.17,2002.4,2003.02,2002.9,2001.95,2001.85,2001.8,2001.75,2001.71,2001.83,2001.73,2001.58,2001.56,2001.47,2001.44,2001.55,2002.39,2002.27,2001.42,2001.73,2001.31,2001.16,2001.12,2001.16,1999.94,2001.17,2001.35,2001.37,1996.61,1997.16,1998.77,2001.41,2000.93,2000.84,2000.8,2000.78,2000.76,2000.74,2000.72,2000.7,2000.68,2000.67,2000.86,2000.79,2000.62,2000.6,2000.6,2000.6,2000.64,2000.8,2001.15,2001.19,2000.93,1998.45,2000.82,2000.52,2000.5,2000.54,2000.91,2001.01,2002.86,1995.88,1995.75,2002.95,2000.8,2000.5,2000.43,2000.4,2000.39,2000.39,2000.4,2000.4,2000.42,2000.42,2000.56,1999.56,2000.83,2000.46,2000.51,2000.57,2000.69,2000.83,2001.41,1997.74,2001.62,2001.37,2001.28,2001.08,2000.89,2000.74,2000.68,2000.69,2000.82,2001.16,2001.95,2003.77,2007.68,2007.56,2009.49,2005.06,2002.47,2001.33,2000.83,2000.61,2000.84,2000.81,2001.1,2000.91,2000.4,2000.27,2000.23,2000.22,2000.21,2000.21,2000.41,2000.43,2000.23,2000.26,2000.33,2000.65,2001.87,2004.86,2001.17,2000.49,2000.88,1996.86,2000.63,2000.38,2001.03,2002.25,2000.8,2001.17,2000.68,2000.53,2000.46,2000.36,2000.29,2000.22,2000.17,2000.15,2000.14,2000.13,2000.13,2000.13,2000.12,2000.12,2000.12,2000.11,2000.11,2000.1,2000.1,2000.1,2000.1,2000.12,2000.02,2000.33,2000.1
2003.89,2002.12,2001.17,2000.7,2000.46,2000.33,2000.29,2000.97,2000.29,2000.16,2000.16,2000.33,1998.95,2000.14,2000.13,2000.19,2000.09,1997.91,2000.26,2000.16,2000.8,2000.44,2000.14,2000.19,2001.29,1998.98,2000.19,2000.11,2000.11,2000.11,2000.11,2000.11,2000.11,2000.13,2000.12,2000.12,2000.12,2000.14,2000.15,2000.16,2000.18,2000.23,2002.41,2000.68,2000.32,2000.25,2000.24,2000.25,2000.28,2000.35,2000.48,2000.74,2001.21,2001.76,2001.76,2001.26,2000.85,2000.72,2000.88,2001.68,2006.52,1995.71,1990.27,1991.22,1998.86,2003.8,2001.24,2000.7,2000.56,2000.52,2001.63,2001.34,2000.42,2000.33,2000.31,2000.31,2000.32,2000.4,2002.33,2000.56,2000.43,2000.83,2000.35,2000.35,2000.35,2000.36,2000.36,2000.37,2000.38,2000.39,2000.4,2000.41,2000.43,2000.45,2000.43,2000.44,2000.45,2000.47,2000.54,1998.71,2000.53,2000.56,2000.53,2000.53,2000.54,2000.56,2000.57,2000.59,2000.62,2000.63,2000.64,2000.66,2000.68,2000.69,2000.72,2000.74,2000.77,2000.79,2000.82,2000.85,2000.88,2000.91,2000.96,2001.08,2000.74,2001.11,2001.16,2001.22,2001.31,2001.45,2001.73,2001.8,2002.14,2002.7,2003.67,2005.51,2009.42,2014.45,2007.95,2008.62,2008.76,2007.63,2018.79,2009.24,2005.56,2003.96,2003.21,2002.82,2002.62,2002.53,2002.51,2002.65,2002.28,2002.71,2003.1,1998.84,2004.49,2002.92,2002.84,2002.89,2002.93,2002.99,2003.06,2003.17,2003.76,2003.37,2003.39,2003.48,2003.58,2003.68,2003.79,2003.9,2003.97,2004.03,2004.07,2004.08,2004.09,2004.12,2004.28,2003.93,2000.88,2004.48,2004.2,2004.19,2004.2,2004.25,2004.52,2004.28,2004.22,2004.2,2004.19,2004.17,2004.15,2004.13,2004.11,2004.08,2004.03,2003.97,2003.92,2003.86,2003.81,2003.79,2004.43,2003.96,2003.58,2003.49,2003.42,2003.35,2003.28,2003.24,2003.16,2003.09,2003.01,2002.94,2002.87,2002.8,2002.72,2002.65,2002.58,2002.51,2002.44,2002.37,2002.3,2002.24,2002.19,2002.14,2002.06,2001.99,2001.92,2001.86,2001.8,2001.75,2001.71,2001.66,2001.6,2001.56,2001.51,2001.48,2001.68,2001.69,2002.21,2001.4,2001.3,2001.23,2001.18,2001.15,2001.16,2001.56,2001.17,2001.33,2004.26,1998.62,2000.23,2002.02,2001.27,2000.94,2000.86,2000.82,2000.79,2000.77,2000.75,2000.73,2000.71,2000.69,2000.68,2000.68,2000.66,2000.63,2000.62,2000.61,2000.62,2000.73,2001.45,1999.64,1999.02,2001.71,2001.55,2000.68,2000.52,2000.5,2000.59,1998.88,2002.72,2004.89,1994.69,1994.57,2004.41,2000.83,2000.51,2000.43,2000.4,2000.39,2000.39,2000.42,2000.52,2000.68,2000.56,2000.59,1999.26,2000.85,2000.45,2000.49,2000.71,2001.25,2001.36,2001.06,2001.68,2000.93,2000.83,2000.79,2000.73,2000.66,2000.62,2000.62,2000.7,2000.93,2001.51,2003.22,2009.17,1998.58,1994.62,1996.21,2003.74,2004.84,2001.93,2001.01,2000.64,2000.5,2000.43,2000.4,2000.35,2000.29,2000.26,2000.24,2000.22,2000.21,2000.21,2000.22,2000.22,2000.24,2000.35,2000.31,2000.35,2000.48,2001.21,2000.72,2000.31,2000.44,2001.21,2000.45,2000.45,2000.67,2001.03,2001.62,1998.11,2001.48,2000.75,2000.49,2000.35,2000.17,2000.49,2000.18,2000.15,2000.14,2000.13,2000.13,2000.12,2000.12,2000.12,2000.12,2000.13,2000.12,2000.11,2000.11,2000.1,2000.1,2000.12,2000.21,2000.16,2000.1
2005.01,2004.36,2001.84,2000.93,2000.55,2000.37,2000.32,1999.18,2000.4,2000.17,2000.15,2000.15,2000.16,2000.13,2000.13,2000.16,2000.59,2000.87,2000.19,2000.13,2000.14,2000.13,2000.11,2000.14,2000.56,2001.2,2000.17,2000.11,2000.11,2000.11,2000.11,2000.11,2000.11,2000.12,2000.13,2000.14,2000.14,2000.15,2000.22,2000.28,2000.2,2000.28,2000.83,2001.67,2000.84,2000.36,2000.26,2000.26,2000.31,2000.41,2000.65,2001.34,2003.67,2004.06,2004.19,2003.61,2001.42,2000.89,2001.03,2001.59,2005.26,1997.57,1991.98,1992.94,2000.83,2003.28,2001.18,2000.66,2000.51,2000.63,1997.85,1998.79,2000.66,2000.39,2000.33,2000.32,2000.32,2000.42,1999.65,2000.42,2000.41,2000.94,2000.36,2000.37,2000.42,2000.42,2000.39,2000.38,2000.39,2000.41,2000.44,2000.42,2000.86,2000.87,2000.46,2000.45,2000.47,2000.52,2001.41,2000.73,2000.57,1999.04,2000.55,2000.54,2000.55,2000.57,2000.58,2000.6,2000.63,2000.64,2000.66,2000.67,2000.7,2000.72,2000.74,2000.76,2000.79,2000.81,2000.84,2000.87,2000.9,2000.94,2000.98,2001.05,2001.16,2001.13,2001.18,2001.26,2001.36,2001.51,2001.66,2001.91,2002.33,2003.07,2004.5,2007.8,2013.02,2001.8,1995.74,1994.05,1996.26,2001.69,2010.73,2011.14,2006.29,2004.32,2003.41,2002.97,2002.75,2002.65,2002.64,2002.64,2002.68,2002.75,2003.61,2001.58,2001.63,2003.17,2003.09,2003.6,2003.21,2003.2,2003.35,2003.37,2003.17,2003.6,2003.6,2003.71,2003.85,2004.01,2004.19,2004.36,2004.47,2004.52,2004.52,2004.47,2004.43,2004.43,2004.84,2002.56,2005.82,2004.6,2004.48,2004.48,2004.49,2004.5,2004.53,2004.57,2004.52,2004.49,2004.47,2004.45,2004.42,2004.39,2004.35,2004.32,2004.27,2004.22,2004.17,2004.11,2004.06,2004.07,2005.28,2004.31,2003.83,2003.71,2003.62,2003.54,2003.46,2003.38,2003.33,2003.25,2003.17,2003.09,2003.01,2002.93,2002.85,2002.77,2002.7,2002.62,2002.56,2002.54,2002.4,2002.32,2002.26,2002.19,2002.13,2002.06,2001.99,2001.93,2001.87,2001.81,2001.76,2001.71,2001.65,2001.63,2001.9,2001.53,2001.53,2001.68,2001.55,2001.37,2001.3,2001.25,2001.21,2001.17,2001.16,2001.16,2001.21,2001.3,2001.46,2001.73,2001.62,2001.32,2001.04,2000.92,2000.87,2000.83,2000.81,2000.78,2000.76,2000.74,2000.72,2000.71,2000.71,2000.29,2000.73,2000.67,2000.64,2000.63,2000.64,2000.78,2002.12,1995.54,1994.98,2002.63,2000.79,2000.58,2000.52,2000.5,2000.53,2000.69,2000.8,2001.46,2003.24,2003.09,2001.46,2000.67,2000.49,2000.43,2000.4,2000.39,2000.4,2000.47,2001.28,1998.12,2001.85,2000.53,2000.48,2000.43,2000.43,2000.54,2001.35,1998.1,1997.73,2001.61,2000.74,2000.63,2000.6,2000.58,2000.56,2000.54,2000.55,2000.59,2000.7,2001,2001.82,2004.74,2001.69,1992.12,1988.49,1989.95,1996.82,2008.58,2002.51,2001.16,2000.68,2000.48,2000.39,2000.33,2000.29,2000.27,2000.47,2000.74,2000.23,2000.21,2000.21,2000.21,2000.24,2000.4,1999.39,1998.45,2000.28,2000.28,2000.3,2000.26,2000.24,2000.27,2000.32,2000.39,2000.59,2001.1,2002.45,2005.28,2006.37,2003.35,2001.44,2000.7,2000.41,2000.32,2000.24,2000.18,2000.16,2000.14,2000.13,2000.13,2000.13,2000.13,2000.14,2000.15,2000.18,2000.19,2000.14,2000.12,2000.11,2000.1,2000.15,1998.29,2000.67,2000.1
1995.74,2008.91,2002.64,2001.16,2000.63,2000.4,2000.29,2000.26,2000.2,2000.16,2000.14,2000.13,2000.12,2000.12,2000.12,2000.12,2000.14,2000.15,2000.12,2000.11,2000.11,2000.11,2000.12,2000.17,2000.17,2000.15,2000.12,2000.11,2000.11,2000.11,2000.11,2000.11,2000.12,2000.13,2000.44,2000.22,2000.15,2000.16,2000.7,1998.87,2000.24,2000.36,2002.28,1995.82,1999.77,2000.56,2000.29,2000.28,2000.33,2000.47,2000.89,2002.43,2001.52,1993.87,1993.99,2001.91,2002.33,2001.04,2001.37,2001.22,2002.63,2007.17,2001,2001.74,2005.72,2001.94,2000.94,2000.62,2000.55,2000.58,2000.84,2000.86,1997.76,1999.02,2000.41,2000.36,2000.34,2000.34,2000.36,2000.35,2000.35,2000.35,2000.36,2000.48,2001.46,2001.13,2000.64,2000.44,2000.4,2000.48,2001.06,2000.43,2000.53,2000.61,2000.46,2000.5,2000.59,2000.57,2000.22,2000.84,2000.54,2000.54,2000.54,2000.55,2000.56,2000.58,2000.6,2000.62,2000.64,2000.66,2000.68,2000.71,2000.95,2000.86,2000.76,2000.78,2000.81,2000.84,2000.87,2000.9,2000.93,2000.97,2001.01,2001.05,2001.1,2001.15,2001.22,2001.3,2001.51,2000.31,2001.76,2002.01,2002.49,2003.4,2005.35,2010.77,2005.11,1994.63,1988.72,1986.65,1988.1,1993.06,2002.04,2015.71,2007.28,2004.68,2003.61,2003.1,2002.87,2002.87,2003.24,2003.03,2002.8,2002.83,2003.13,2006.18,2003.95,2003.17,2003.55,1999.63,2003.73,2003.54,2001.72,2003.55,2003.62,2003.72,2003.84,2004,2004.19,2004.45,2004.79,2005.15,2005.4,2005.41,2006.04,2005.1,2004.86,2004.79,2004.83,2004.98,2004.85,2004.81,2004.8,2004.8,2004.81,2004.83,2004.87,2002.88,2005.04,2004.82,2004.79,2004.77,2004.74,2004.7,2004.66,2004.61,2004.56,2004.5,2004.43,2004.37,2004.32,2004.37,2002.45,2006.17,2004.24,2003.96,2003.85,2003.75,2003.66,2003.57,2003.49,2003.4,2003.34,2003.26,2003.17,2003.08,2002.99,2002.9,2002.82,2002.74,2002.69,2001.78,2002.52,2002.43,2002.35,2002.28,2002.21,2002.14,2002.07,2002.01,2001.94,2001.88,2001.82,2001.76,2001.71,2001.67,2001.69,2001.56,2001.52,2001.48,2001.44,2001.38,2001.33,2001.28,2001.24,2001.21,2001.19,2001.24,2001.86,2003.06,2001.53,2001.2,2001.12,2001.04,2000.97,2000.92,2000.88,2000.85,2000.82,2000.8,2000.78,2000.76,2000.75,2000.73,2000.72,2000.92,2000.84,1999.18,2000.87,2001.04,2000.64,2000.73,2001.25,2002.37,2001.69,2001.36,2000.69,2000.56,2000.52,2000.5,2000.5,2000.53,2000.59,2000.77,2001.27,2001.02,2000.71,2000.53,2000.46,2000.42,2000.4,2000.39,2000.4,2000.48,2001.7,2002.09,2002.51,2000.52,2000.4,2000.39,2000.41,2000.55,2001.63,1996.08,1995.73,2001.92,2000.7,2000.59,2000.5,2000.48,2000.47,2000.48,2000.5,2000.55,2000.69,2001.01,2001.88,2005.08,2000.63,1991.19,1987.6,1989.04,1995.83,2009.62,2002.62,2001.18,2000.69,2000.47,2000.37,2000.31,2000.28,2000.26,2000.27,2000.28,2000.22,2000.21,2000.21,2000.22,2000.3,1999.7,1998.4,2000.38,2000.24,2000.2,2000.21,2000.21,2000.22,2000.25,2000.3,2000.43,2000.78,2001.97,2005.85,1996.69,1995.42,2001.47,2003.07,2001.02,2000.5,2000.32,2000.26,2000.21,2000.16,2000.14,2000.13,2000.13,2000.13,2000.14,2000.17,2000.23,2000.58,2000.79,2000.2,2000.14,2000.12,2000.1,2000.12,2000.26,2000.22,2000.23
1992.59,2005.5,2003.1,2001.28,2000.67,2000.42,2000.3,2000.23,2000.19,2000.17,2000.15,2000.14,2000.13,2000.12,2000.12,2000.11,2000.11,2000.11,2000.11,2000.11,2000.11,2000.11,2000.15,1998.31,2000.45,2000.12,2000.11,2000.11,2000.11,2000.11,2000.11,2000.11,2000.12,2000.15,2000.92,2000.27,2000.16,2000.16,2000.21,2000.25,2000.22,2000.34,2001.64,1996.94,2001.28,2000.59,2000.32,2000.29,2000.34,2000.52,2001.56,2002.33,1999.23,1991.89,1992,1999.6,2002.7,2001.03,2000.76,2000.87,2001.32,2002.22,2003.42,2002.95,2001.87,2001.09,2000.71,2000.61,2001.21,2002.77,2000.72,2000.45,2000.47,2000.64,2000.47,1999.25,2000.47,2000.34,2000.33,2000.34,2000.38,2000.37,2000.37,2000.54,1998.39,2002.16,2001.21,2001.11,2000.47,2000.41,2000.42,2000.43,2000.48,2000.49,2000.47,2000.67,1997.6,2000.73,2000.55,2000.54,2000.53,2000.54,2000.55,2000.56,2000.58,2000.59,2000.61,2000.64,2000.66,2000.68,2000.69,2000.72,2001.15,2000.94,2000.78,2000.8,2000.83,2000.87,2000.91,2000.95,2000.99,2001.02,2001.05,2001.08,2001.13,2001.18,2001.24,2001.33,2001.48,2001.86,2001.79,2002.08,2002.59,2003.58,2005.85,2012.97,2001.84,1991.62,1985.78,1983.63,1984.92,1989.74,1998.58,2012.68,2007.93,2004.91,2003.79,2003.29,2003.01,2003.38,1999.05,2002.62,2002.99,2002.91,2002.99,2003.12,2003.17,2003.2,2003.35,2003.71,2003.69,2003.57,2003.81,2003.91,2003.83,2003.96,2004.11,2004.31,2004.61,2005.08,2005.88,2007.1,2008.13,2007.88,2006.82,2005.92,2005.44,2005.22,2005.15,2005.13,2005.14,2005.14,2005.15,2005.16,2005.17,2005.17,2005.22,2006.3,2005.22,2005.16,2005.14,2005.13,2005.11,2005.05,2004.99,2004.94,2004.88,2004.82,2004.75,2004.68,2004.61,2004.58,2004.94,2000.84,2005.44,2004.22,2004.09,2003.98,2003.89,2003.79,2003.69,2003.59,2003.49,2003.43,2003.34,2003.24,2003.15,2003.05,2002.96,2002.87,2002.79,2002.71,2002.62,2002.55,2002.57,2002.38,2002.29,2002.22,2002.15,2002.08,2002.02,2001.95,2001.88,2001.82,2001.77,2001.71,2001.66,2001.6,2001.55,2001.5,2001.47,2001.63,2001.61,2001.33,2001.28,2001.24,2001.22,2001.32,2001.67,1996.42,2002.24,2001.17,2001.09,2001.05,2000.98,2000.94,2000.91,2000.87,2000.84,2000.82,2000.81,2000.83,2000.92,2000.82,2000.73,2000.7,2000.72,2000.86,2000.68,2000.65,2000.63,2000.66,2000.76,2000.96,2000.97,2000.75,2000.6,2000.54,2000.52,2000.5,2000.52,2000.53,2000.54,2000.65,1998.13,2000.89,2000.55,2000.51,2000.44,2000.41,2000.39,2000.39,2000.39,2000.42,2000.61,2001.1,2000.69,2000.43,2000.38,2000.38,2000.4,2000.47,2000.81,2002.22,2002.37,2000.91,2001.31,1999.01,2000.48,2000.43,2000.42,2000.43,2000.46,2000.52,2000.64,2000.93,2001.66,2003.79,2005.65,1995.57,1991.77,1993.3,2000.51,2006.09,2002.16,2001.06,2000.65,2000.46,2000.36,2000.3,2000.27,2000.27,2000.24,2000.23,2000.22,2000.21,2000.2,2000.21,2000.27,2000.9,2001.17,2000.27,2000.2,2000.2,2000.27,2000.23,2000.22,2000.24,2000.31,2000.46,2000.91,2002.79,2000.06,1991.75,1990.59,1996.12,2005.1,2001.25,2000.55,2000.63,2001.22,2000.55,2000.18,2000.15,2000.14,2000.14,2000.15,2000.17,2000.26,2000.5,2000.99,2000.9,2000.41,2000.2,2000.13,2000.11,2000.1,2000.1,2000.14,2000.19
1994.79,2009.92,2002.78,2001.21,2000.66,2000.57,2000.33,2000.25,2000.23,2000.21,2000.18,2000.16,2000.14,2000.13,2000.12,2000.12,2000.11,2000.11,2000.11,2000.11,2000.11,2000.11,2000.12,2000.3,2000.18,2000.11,2000.11,2000.11,2000.11,2000.11,2000.11,2000.23,2000.2,2000.15,2000.18,2000.21,2000.19,2000.17,2000.19,1998.31,2000.21,2000.25,2000.45,2000.83,2000.9,1998.7,2000.49,2000.3,2000.33,2000.51,2002.01,1998.87,2005.37,1997.16,1997.28,2005.79,2001.87,2000.87,2000.64,2000.65,2000.78,2000.98,2001.14,2001.1,2000.9,2000.69,2000.56,2000.62,2000.22,1995.83,2001.25,2000.41,2000.35,2000.34,2000.41,2001.46,2000.44,2000.34,2000.34,2000.35,1999.75,2000.6,2000.37,2000.42,2000.58,2000.78,2000.5,2001.31,2000.49,2000.42,2000.42,2000.43,2000.82,2000.76,2000.48,2000.55,2000.95,2000.58,2000.52,2000.53,2000.53,2000.55,2000.56,2000.57,2000.59,2000.61,2000.62,2000.65,2000.7,2001.18,2000.73,2000.73,2000.77,2000.84,2000.84,2000.85,2001.11,2000.95,2001.19,2001.15,2001.16,2001.17,2001.14,2001.13,2001.16,2001.21,2001.27,2001.36,2001.47,2001.61,2001.8,2002.1,2002.6,2003.57,2005.74,2012.3,2002.74,1992.41,1986.49,1984.28,1985.56,1990.42,1999.35,2013.64,2007.72,2004.9,2005.83,2001.87,2003.14,2003.25,2002.81,2004.26,2003.06,2003.01,2003.07,2003.16,2003.24,2003.32,2003.42,2003.56,2001.89,2003.78,2004.22,2004.47,2004.07,2004.21,2004.39,2004.65,2005.09,2006.03,2008.46,2011.14,2006.15,2007.82,2011.76,2007.5,2006.17,2005.71,2005.55,2005.63,2005.89,2005.54,2005.63,2005.64,2005.57,2005.56,2005.58,2005.74,2005.56,2005.55,2005.53,2005.93,2005.98,2005.44,2005.35,2005.29,2005.22,2005.15,2005.08,2005,2004.92,2004.85,2004.87,2005.32,2004.76,2004.46,2004.33,2004.23,2004.12,2004.02,2003.91,2003.8,2003.7,2003.59,2003.48,2003.41,2003.31,2003.21,2003.11,2003.02,2002.95,2002.84,2002.74,2002.67,2002.88,2002.49,2002.39,2002.31,2002.24,2002.16,2002.09,2002.02,2001.95,2001.89,2001.82,2001.77,2001.71,2001.65,2001.6,2001.55,2001.5,2001.96,2001.99,2001.37,2001.31,2001.27,2001.25,2001.28,2001.72,2002.64,2001.43,2001.15,2001.47,2002.66,2001.07,2001.03,2001.43,2000.94,2000.86,2000.84,2000.84,2001.08,1998.41,2001.6,2000.81,2000.71,2000.69,2000.67,2000.65,2000.64,2000.63,2000.63,2000.64,2000.65,2000.64,2000.6,2000.56,2000.53,2000.52,2000.51,2001.27,2000.9,2001.1,2000.59,2000.87,2001.06,2000.76,1998.46,2000.55,2000.41,2000.39,2000.38,2000.39,2000.4,2000.41,2000.43,2000.41,2000.38,2000.37,2000.37,2000.38,2000.41,2000.48,2000.61,1998.6,2000.53,2000.56,2000.66,2000.41,2000.39,2000.39,2000.4,2000.43,2000.48,2000.58,2000.8,2000.14,2002.39,2005.61,2006.36,2001.95,2003.71,2007.76,2003.13,2001.52,2000.87,2000.57,2000.42,2000.34,2000.3,2000.39,2000.72,2000.26,2000.22,2000.21,2000.21,2000.2,2000.21,2000.22,2000.22,2000.23,2000.2,2000.19,2000.24,1997.91,2000.48,2000.22,2000.24,2000.31,2000.46,2000.86,2002.42,2002.22,1993.61,1992.41,1998.13,2004.1,2001.15,2000.53,2000.44,1999.61,2001.01,2000.19,2000.15,2000.14,2000.14,2000.16,2000.22,2000.43,2001.69,1997.73,1998.72,2001.15,2000.3,2000.15,2000.11,2000.1,2000.09,2000.09,2000.09
2002.85,2005,2002,2001.02,2000.63,2000.72,2000.35,2000.28,2000.68,2000.54,2000.28,2000.23,2000.18,2000.15,2000.14,2000.13,2000.12,2000.12,2000.13,2000.21,2000.15,2000.11,2000.11,2000.51,2000.45,2000.12,2000.11,2000.11,2000.11,2000.11,2000.11,2000.22,2000.2,2000.16,2000.32,2000.78,2000.47,2000.23,2000.21,2000.21,2000.19,2000.2,2000.24,2000.3,2000.68,1997.21,2000.71,2000.29,2000.31,2000.42,2000.71,2001.27,2002.21,2004.15,2004.12,2002.11,2001.06,2000.67,2000.56,2000.56,2000.55,2000.6,2000.64,2000.62,2000.57,2000.5,2000.46,2000.49,2000.99,2001.82,2000.62,2000.38,2000.34,2000.33,2000.34,2000.35,2000.34,2000.34,2000.34,2000.36,2000.39,2001.37,2000.43,2000.39,2000.5,1998.02,2000.53,2000.42,2000.42,2000.42,2000.45,2000.45,2000.47,2000.51,2000.48,2000.5,2000.51,2000.52,2000.52,2000.53,2000.54,2000.56,2000.57,2000.59,2000.6,2000.62,2000.63,2000.66,2000.73,2001.17,2000.75,2000.75,2000.82,1998.7,1999.98,2001.02,2001.81,2001.08,1998.13,2002.39,2004.87,2002.52,2000.41,2001.2,2001.19,2001.23,2001.3,2001.38,2001.49,2001.62,2001.81,2002.09,2002.54,2003.38,2005.05,2009.59,2007.91,1997.06,1990.87,1988.58,1989.96,1995.06,2004.35,2013.36,2006.92,2004.62,2003.99,2003.9,2003.15,2003.07,2003.14,2003.12,2003.09,2003.13,2003.21,2003.3,2003.38,2003.47,2003.57,2003.69,2003.82,2003.92,2004.05,2004.18,2004.31,2004.47,2004.68,2005.01,2005.63,2007.3,2012.16,2000.93,1996.7,2003,2001.54,2010.24,2007.03,2006.24,2006.01,2006.32,2005.36,2006.06,2005.19,2006.31,2006.05,2006,2005.99,2006,2006.05,2006.37,2005.97,2006.04,2006.18,2007.6,2005.81,2005.69,2005.61,2005.52,2005.44,2005.35,2005.26,2005.17,2005.08,2004.99,2004.87,2004.74,2004.61,2004.49,2004.37,2004.26,2004.15,2004.04,2003.92,2003.8,2003.69,2003.56,2003.46,2003.38,2003.27,2003.18,2002.81,2003.17,2002.86,2002.77,2002.68,2002.59,2002.5,2002.41,2002.32,2002.25,2002.17,2002.1,2002.03,2001.96,2001.89,2001.82,2001.76,2001.71,2001.65,2001.59,2001.54,2001.5,2001.45,2001.39,2001.35,2001.31,2001.27,2001.25,2001.26,2001.25,2001.18,2001.14,2001.93,1999.46,2001.12,2001.18,1998.66,2001.01,2000.88,2000.87,2000.9,2001.17,2002.34,2001.48,2000.81,2000.72,2000.69,2000.67,2000.66,2000.69,2000.67,2000.62,2000.61,2000.6,2000.59,2000.57,2000.55,2000.53,2000.52,2000.51,2000.53,2000.65,2002.29,2000.67,1998.3,1999.17,2002.6,2000.56,2000.44,2000.4,2000.39,2000.38,2000.41,1998.58,2000.39,2000.38,2000.37,2000.37,2000.38,2000.41,2000.42,2000.4,2000.4,2000.41,2000.44,2000.4,2000.39,2000.38,2000.37,2000.36,2000.37,2000.38,2000.4,2000.44,2000.51,2000.66,2000.94,2001.69,2003.58,2000.41,2004.7,2004.01,2002.71,2001.65,2001.02,2000.68,2000.49,2000.38,2000.32,2000.29,2000.58,1999.5,2000.26,2000.21,2000.21,2000.21,2000.2,2000.21,2000.18,2000.18,2000.19,2000.18,2000.19,2000.2,2000.35,2000.25,2000.21,2000.24,2000.33,2000.75,2000.75,2001.47,2004.14,2003.02,2001.6,2006.53,2002,2000.84,2000.45,2000.3,2000.29,2000.26,2000.19,2000.15,2000.15,2000.16,2000.2,2000.33,2000.74,2004.25,1994.24,1995.07,2001.83,2000.35,2000.16,2000.12,2000.1,2000.09,2000.09,2000.11
2004.71,2002.54,2001.35,2000.88,2000.91,2000.69,2000.39,2000.35,2000.49,2000.7,2000.69,2000.44,2000.26,2000.19,2000.17,2000.17,2000.16,2000.15,2000.2,1997.6,2000.36,2000.12,2000.11,2000.22,2000.52,2000.19,2000.12,2000.13,2000.13,2000.13,2000.13,2000.14,2000.17,2000.18,2000.42,1997.95,2000.94,2000.82,2000.37,2000.21,2000.22,2000.2,2000.2,2000.22,2000.27,2000.4,2000.32,2000.27,2000.29,2000.36,2000.49,2000.64,2000.88,2001.11,2001.11,2000.88,2000.66,2000.56,2000.58,2000.77,2000.44,2000.45,2000.46,2000.45,2000.43,2000.41,2000.39,2000.39,2000.42,2000.44,2000.38,2000.34,2000.33,2000.33,2000.33,2000.33,2000.34,2000.34,2000.36,2000.38,2000.39,2000.43,2000.39,2000.38,2000.41,2000.45,2000.42,2000.41,2000.42,2000.44,1998.5,2000.49,2000.53,1998.41,2000.52,2000.53,2000.52,2000.52,2000.53,2000.54,2000.56,2000.57,2000.59,2000.6,2000.62,2000.63,2000.65,2000.67,2000.7,2000.72,2000.74,2000.77,2000.81,2000.94,2000.91,2000.9,2000.92,2000.99,2001.43,2002.14,1996.47,1997.81,2001.76,2001.24,2001.22,2001.26,2001.33,2001.41,2001.51,2001.64,2001.8,2002.05,2002.43,2003.08,2004.31,2006.81,2013.16,2006.12,1999.37,1996.93,1999.29,2013.13,2014.56,2008.85,2005.64,2004.23,2003.61,2003.31,2003.15,2003.1,2003.1,2003.14,2003.19,2003.27,2003.41,2003.64,2003.58,2003.65,2003.76,2003.88,2004.01,2004.13,2004.27,2004.4,2004.56,2004.75,2004.99,2005.36,2006.08,2008.29,2008.08,1997.56,1993.54,1995.09,2002.23,2012.84,2007.74,2006.75,2006.49,2006.43,2006.42,2006.47,2008.48,2007.51,2006.5,2006.45,2006.45,2006.45,2006.48,2006.74,2006.41,2006.38,2006.41,2005.89,2006.26,2006.12,2006.04,2005.95,2005.85,2005.75,2005.64,2005.53,2005.41,2005.29,2005.17,2005.05,2004.92,2004.79,2004.66,2004.53,2004.41,2004.71,2004.18,2004.12,2003.96,2003.79,2003.65,2003.52,2003.41,2003.34,2003.24,2003.12,2003.01,2002.89,2002.79,2002.7,2002.62,2002.53,2002.43,2002.33,2002.25,2002.18,2002.1,2002.04,2002.02,2001.89,2001.82,2001.76,2001.69,2001.64,2001.58,2001.53,2001.47,2001.43,2001.38,2001.34,2001.3,2001.26,2001.23,2001.19,2001.16,2001.13,2001.14,2001.14,2001.04,2001.01,2001.01,2000.93,2000.9,2000.89,2001.06,2000.79,2000,2001.08,2000.79,2000.73,2000.7,2000.68,2000.68,2000.89,2001.22,2000.63,2000.61,2000.6,2000.58,2000.56,2000.55,2000.54,2000.53,2000.52,2000.51,2000.51,2000.51,2000.51,2000.55,2000.75,2000.84,2000.46,2000.43,2000.4,2000.39,2000.38,2000.39,2000.41,2000.37,2000.36,2000.36,2000.37,2000.44,2000.79,2000.95,2000.49,2000.38,2000.37,2000.36,2000.36,2000.36,2000.38,2000.36,2000.35,2000.35,2000.36,2000.37,2000.4,2000.45,2000.54,2000.7,2001.75,2002.22,2001.76,2001.75,2001.61,2001.31,2000.98,2000.72,2000.54,2000.42,2000.35,2000.3,2000.27,2000.27,2000.27,2000.23,2000.21,2000.2,2000.2,2000.18,2000.18,2000.18,2000.18,2000.18,2000.18,2000.19,2000.19,2000.21,2000.21,2000.21,2000.25,2000.66,1998.14,2000.8,1999.11,2001.46,2002.21,2002.46,2001.72,2000.96,2001.05,2000.54,2000.26,2000.23,1999.53,2000.51,2000.16,2000.18,2000.44,2000.3,2000.76,2001.08,1998.54,2001.17,2001.95,2001.18,2000.32,2000.15,2000.14,2000.33,2000.11,2000.1,2000.17
2001.97,2001.74,2001,2001.05,1997.67,1999.58,2000.56,2000.5,2001.26,2002.92,2002.64,2001.31,2000.45,2000.25,2000.44,2002.28,2000.3,2000.24,2000.19,2000.28,2000.16,2000.12,2000.11,2000.12,2000.28,2000.15,2000.13,2000.58,2000.44,2000.13,2000.13,2000.14,2000.07,2000.47,2000.23,1999.68,2002.69,1996.01,2001.15,2000.25,2001.34,2000.26,2000.19,2000.2,2000.21,2000.24,2000.28,2000.31,2000.3,2000.36,1998.44,2000.52,2000.51,2000.56,2000.57,2000.52,2000.5,1998.29,2000.57,2000.38,2000.37,2000.38,2000.38,2000.38,2000.37,2000.36,2000.35,2000.35,2000.35,2000.35,2000.34,2000.33,2000.33,2000.33,2000.33,2000.34,2000.34,2000.36,2000.39,2000.56,2000.77,2000.46,2000.39,2000.39,2000.39,2000.4,2000.41,2000.41,2000.42,2000.44,2000.47,2000.46,2000.48,2000.52,2000.67,1999.47,2000.56,2000.53,2000.54,2000.56,2000.57,2000.59,2000.6,2000.62,2000.63,2000.65,2000.66,2000.68,2000.71,2000.73,2000.76,2000.79,2000.83,2000.86,2000.88,2000.92,2000.95,2000.98,2001.07,2001.53,2001.42,2003,2001.46,2001.23,2001.24,2001.29,2001.35,2001.43,2001.53,2001.64,2001.79,2002,2002.31,2002.79,2003.56,2004.9,2007.31,2011.65,2013.16,2010.35,2015.63,2010.68,2007.3,2006.21,2004.69,2003.88,2003.48,2003.29,2003.19,2003.17,2003.19,2003.25,2003.32,2003.42,2003.86,2000.65,2003.85,2003.85,2003.97,2004.1,2004.23,2004.37,2004.51,2004.68,2004.85,2005.05,2005.3,2005.65,2006.33,2008.24,2010.81,1999.95,1995.83,1997.27,2004.57,2011.9,2008.03,2007.22,2007.19,2007.34,2006.97,2006.91,2006.96,2006.99,2006.97,2006.97,2006.98,2006.98,2006.97,2006.95,2006.92,2006.87,2006.83,2006.77,2006.67,2006.58,2006.49,2006.39,2006.29,2006.18,2006.07,2006.06,2005.95,2005.68,2005.53,2005.38,2005.25,2005.14,2005.01,2004.84,2004.7,2005.05,2004.45,2003.09,2005.08,2004.06,2003.9,2003.74,2003.63,2002.86,2003.36,2003.28,2001.92,2003.05,2002.92,2002.84,2002.96,2003.17,2002.54,2002.43,2002.34,2002.26,2002.18,2002.14,2001.66,2001.97,2001.88,2001.81,2001.75,2001.69,2001.63,2001.58,2001.52,2001.47,2001.43,2001.39,2001.34,2001.29,2001.26,2001.23,2001.17,2001.13,2001.1,2001.07,2001.03,2001,2000.97,2000.93,2000.91,2000.91,2001.09,1999.77,1999.02,2001.08,2000.79,2000.74,2000.71,2000.69,2000.68,2000.69,2000.67,2000.64,2000.88,2000.66,2000.6,2000.57,2000.56,2000.56,2000.58,2000.54,2000.53,2000.52,2000.51,2000.49,2000.48,2000.5,1998.76,2000.5,2000.17,2000.41,2000.39,2000.39,2000.38,2000.37,2000.37,2000.36,2000.36,2000.39,2000.67,1999.23,1996.95,2000.79,2000.4,2000.4,2000.4,2000.35,2000.42,1998.74,2000.41,2000.34,2000.33,2000.34,2000.35,2000.37,2000.4,2000.46,2000.54,2000.66,2000.79,2000.87,2000.91,2000.88,2000.87,2000.74,2000.59,2000.48,2000.37,2000.32,2000.28,2000.26,2000.24,2000.23,2000.22,2000.21,2000.18,2000.17,2000.17,2000.17,2000.19,2000.19,2000.19,2000.2,2000.2,2000.22,2000.25,2000.24,2000.22,2000.25,2001.57,2000.5,2000.44,2000.83,2000.68,2000.83,2000.26,2002,2000.54,2000.41,2000.3,2000.22,2000.2,2000.37,2000.24,2000.16,2000.3,1998.62,1999.9,2001.47,1997.24,2001.83,2001.32,2000.75,2000.49,2000.27,2000.14,2000.15,2000.5,2000.1,2000.09,2000.24
1998.98,2000.91,1999.46,2000.85,1998.62,2000.65,2000.54,2000.67,2004.26,1994.29,1994.06,2003.39,1999.78,2000.35,2000.61,2001.3,2001.49,2001.14,2000.3,2000.16,2000.13,2000.14,2000.15,2000.13,2000.14,2000.16,2000.16,2000.19,2000.17,2000.13,2000.13,2000.14,2000.18,2000.17,2000.18,2000.27,2000.93,1999.99,2000.65,2000.23,2000.19,2000.18,2000.18,2000.19,2000.21,2000.26,2000.69,2001.5,2000.43,2000.33,2000.66,2000.48,2000.42,2000.41,2000.4,2000.39,2000.38,2000.48,2000.38,2000.34,2000.34,2000.35,2000.34,2000.34,2000.34,2000.34,2000.33,2000.33,2000.33,2000.33,2000.33,2000.33,2000.35,2000.35,2000.35,2000.35,2000.35,2000.43,2000.82,2002.52,1996.9,2000.72,2000.41,2000.39,2000.4,2000.41,2000.41,2000.42,2000.43,2000.44,2000.45,2000.46,2000.47,2000.49,2000.58,2000.94,2000.56,2000.55,2000.57,2000.61,2000.6,2000.62,2000.63,2000.64,2000.65,2000.67,2000.68,2000.7,2000.72,2000.74,2000.78,2000.84,2001.04,2001.09,2000.96,2001.76,2001.76,2001.01,2001.05,2001.15,2001.34,2001.35,2001.24,2001.22,2001.26,2001.31,2001.38,2001.45,2001.54,2001.65,2001.78,2001.96,2002.2,2002.54,2003.03,2003.76,2004.8,2006.2,2007.87,2009.4,2008.41,2007.31,2005.79,2004.85,2004.54,2003.61,2003.43,2004.13,2003.3,2003.34,2003.35,2003.38,2003.47,2003.57,2003.73,2004,2003.96,2004.06,2004.19,2004.33,2004.48,2004.64,2004.8,2004.97,2005.15,2005.35,2005.59,2005.93,2006.48,2007.66,2011.16,2008.64,2004,2005.59,2013.9,2009.75,2008.1,2007.97,2008.4,2004.05,2007.86,2007.46,2007.47,2007.5,2007.53,2007.55,2007.56,2007.56,2007.55,2007.54,2007.5,2007.44,2007.38,2007.31,2007.22,2007.12,2007.01,2006.9,2006.77,2006.64,2006.52,2006.72,2006.67,2006.1,2005.94,2005.78,2005.63,2005.97,2005.39,2005.19,2004.99,2004.83,2004.69,2004.65,2004.55,2005.7,2004.73,2004.6,2003.81,2003.71,2003.53,2003.4,2003.33,2003.19,2003.12,2001.87,2002.98,2002.9,2002.64,2002.54,2002.44,2002.34,2002.26,2002.18,2002.11,2002.02,2001.94,2001.87,2001.8,2001.74,2001.69,2001.63,2001.57,2001.51,2001.51,2001.38,2001.44,2001.34,2001.39,2001.91,2001.24,2001.16,2001.12,2001.08,2001.05,2001.01,2000.98,2000.95,2000.92,2000.91,2000.94,2001.12,2001.12,2000.88,2000.79,2000.75,2000.72,2000.7,2000.68,2000.66,2000.65,2000.66,2000.07,2000.8,2000.99,2000.66,2000.57,2000.65,1998.6,2000.6,2000.6,2000.6,2000.57,2000.52,2000.49,2000.47,2000.47,2000.45,2000.49,2000.41,2000.39,2000.38,2000.38,2000.37,2000.37,2000.36,2000.37,2000.39,2000.61,2002.05,2001.26,2000.61,2000.39,2002,2000.66,2000.36,2000.38,2000.73,2000.38,2000.33,2000.32,2000.32,2000.33,2000.35,2000.37,2000.46,2001.15,2000.5,2000.53,2000.57,2000.59,2000.61,1999.9,2000.77,2001.15,2001.03,2000.33,2000.3,2000.28,2000.26,2000.24,2000.22,2000.19,2000.18,2000.18,2000.18,2000.18,2000.18,2000.19,2000.19,2000.2,2000.21,2000.22,2000.36,2001.34,2000.56,2000.24,2000.23,2000.33,2000.38,2000.3,2000.34,2000.39,2000.44,2000.55,2000.49,2000.35,2000.31,2000.25,2000.2,2000.17,2000.16,2000.15,2000.15,2000.2,2000.41,2000.46,2001.33,1997.71,1996.06,2002.22,2000.49,2000.25,2000.16,2000.11,2000.1,2000.09,2000.08,2000.08,2000.11
2001.28,2000.56,2000.43,2000.43,2000.57,2000.49,2000.37,2000.62,2005.33,1995.13,1994.9,2004.44,2000.91,2000.35,2000.54,2001.06,1997.61,1998.9,2000.52,2000.18,2000.14,2000.45,2000.03,2000.16,2000.22,2000.68,2000.62,2000.22,2000.15,2000.13,2000.13,2000.14,2000.14,2000.15,2000.16,2000.18,2000.25,2000.31,2000.24,2000.19,2000.18,2000.18,2000.18,2000.19,2000.21,2000.29,2001.24,1996.67,2000.89,2000.34,2000.38,2000.57,2000.98,2000.48,2000.36,2000.34,2000.32,2000.32,2000.32,2000.32,2000.4,2000.43,2000.34,2000.32,2000.32,2000.32,2000.33,2000.33,2000.33,2000.32,2000.33,2000.35,2001.37,2000.58,2000.85,2000.42,2000.37,2000.43,2000.63,2000.78,2001.66,2000.55,2000.42,2000.4,2000.41,2000.41,2000.42,2000.43,2000.44,2000.44,2000.45,2000.47,2000.48,2000.49,2000.51,2000.53,2000.55,2000.57,2000.66,1999.71,2000.66,2000.67,2000.68,2000.68,2000.68,2000.69,2000.7,2000.71,2000.74,2000.76,2000.8,2000.94,2000.03,1999.45,2001.12,2001.38,2001.39,2001.02,2001.06,2001.1,2001.14,2001.17,2001.2,2001.23,2001.28,2001.34,2001.4,2001.47,2001.56,2001.65,2001.77,2001.93,2002.11,2002.36,2002.68,2003.09,2003.61,2004.22,2005.22,2003.23,2005.13,2004.73,2004.31,2003.92,2003.62,2003.44,2003.39,2002.7,2003.4,2004.91,2003.61,2003.51,2003.61,2003.73,2003.88,2004.02,2004.14,2004.28,2004.43,2004.61,2004.78,2004.94,2005.1,2005.28,2005.46,2005.68,2005.93,2006.23,2006.64,2007.3,2008.48,2010.47,2012.45,2011.93,2010,2008.74,2008.25,2007.42,2007.59,2008.26,2008.24,2008.04,2008.07,2008.11,2008.15,2008.18,2008.19,2008.2,2008.19,2008.29,2008.53,2008.1,2007.98,2007.9,2007.8,2007.7,2007.59,2007.46,2007.32,2007.18,2007.03,2006.97,2007.28,2006.58,2006.51,2006.24,2006.04,2006.21,2007.5,2005.52,2005.3,2005.13,2004.96,2004.81,2004.78,2002.57,2006.86,2004.36,2004.01,2005.1,2003.92,2003.55,2003.42,2003.3,2003.4,2003.04,2003,2002.89,2002.78,2002.66,2002.55,2002.44,2002.34,2002.26,2002.17,2002.09,2002.01,2001.94,2001.86,2001.8,2002.15,2001.83,2001.62,2001.56,2001.54,2003.33,2001.46,2001.38,2001.77,1999.57,2001.31,2001.19,2001.14,2001.11,2001.07,2001.04,2001,2000.97,2000.94,2000.91,2000.9,2000.89,2000.87,2000.82,2000.79,2000.75,2000.73,2000.71,2000.69,2000.67,2000.65,2000.64,2000.65,2000.68,1999.01,2000.83,2000.58,2000.59,2000.64,2000.7,2000.89,2000.99,2000.81,2000.62,2000.52,2000.48,2000.46,2000.44,2000.42,2000.41,2000.4,2000.39,2000.38,2000.38,2000.37,2000.37,2000.37,2000.41,2000.58,2000.59,2000.51,2000.4,2000.36,2000.39,2000.4,2000.38,2000.42,2002.04,2000.51,2000.33,2000.31,2000.31,2000.32,2000.32,2000.34,2000.4,2000.77,2000.41,2000.42,2000.43,2000.44,2000.45,2000.62,2000.57,2000.39,2000.34,2000.31,2000.29,2001.24,2000.36,2000.22,2000.2,2000.19,2000.18,2000.18,2000.18,2000.19,2000.19,2000.2,2000.21,2000.21,2000.22,2000.24,2000.45,1997.67,2000.96,2000.26,2000.23,2000.23,2000.24,2000.25,2000.26,2000.28,2000.29,2000.3,2000.28,2000.29,1998.16,2000.28,2000.2,2000.18,2000.16,2000.14,2000.14,2000.16,2000.2,2000.33,2001.24,1996.66,1995.05,2004.83,2000.41,2000.18,2000.12,2000.1,2000.09,2000.08,2000.08,2000.08,2000.08
2000.41,2000.35,2000.39,2000.45,2000.28,2000.25,2000.26,2000.4,2000.98,2002.65,2002.74,2001.03,2000.41,2000.37,2001.42,1998.35,1995.18,2002.96,2000.41,2000.17,2000.14,2000.18,2000.32,2000.29,2000.4,1997.43,1998.05,2000.33,2000.15,2000.14,2000.13,2000.14,2000.14,2000.15,2000.15,2000.16,2000.17,2000.18,2000.18,2000.17,2000.19,2000.23,2000.19,2000.19,2000.2,2000.25,2000.51,2001.4,1997.92,2000.37,2000.3,2000.64,1998.19,2000.54,2000.72,2000.55,2000.3,2000.3,2000.3,2000.32,2002.08,1999.49,2000.34,2000.32,2000.32,2000.32,2000.33,2000.34,2000.33,2000.33,2000.33,2000.35,2000.56,2000.45,2000.87,2000.46,2000.39,2000.2,2000.52,2000.43,2000.45,2000.57,2001.68,2000.42,2000.42,2000.42,2000.43,2000.44,2000.44,2000.45,2000.46,2000.48,2000.49,2000.5,2000.52,2000.54,2000.56,2000.59,2000.64,2000.71,2000.76,2000.8,2000.79,2000.76,2000.73,2000.72,2000.72,2000.73,2000.75,2000.78,2000.81,2000.92,2002.23,2000.89,2001.14,2001.1,2001.01,2001.03,2001.54,2002.34,2001.15,2001.19,2001.21,2001.25,2001.31,2001.36,2001.43,2001.5,2001.57,2001.67,2001.77,2001.9,2002.05,2002.24,2002.45,2002.72,2003.02,2003.33,2003.62,2003.83,2003.82,2003.81,2002.59,2003.52,2003.4,2003.34,2003.33,2003.37,2003.46,2003.5,2003.57,2003.65,2003.78,2003.94,2004.19,2004.37,2004.39,2004.52,2004.75,2005.18,2005.38,2005.3,2005.41,2005.61,2005.82,2006.05,2006.29,2006.56,2006.89,2007.31,2007.85,2008.45,2008.92,2009.01,2008.8,2008.58,2008.49,2008.69,2008.8,2008.71,2008.68,2008.71,2008.77,2008.83,2008.87,2008.91,2008.92,2008.93,2008.93,2009.5,2006.12,2008.89,2008.69,2008.58,2008.47,2008.35,2008.22,2008.07,2007.91,2007.75,2007.6,2007.63,2005.31,2007.12,2007.2,2006.74,2006.76,2006.37,2005.93,2005.88,2005.65,2005.45,2005.26,2005.09,2004.94,2004.87,2004.64,2004.39,2004.22,2004.09,2003.92,2003.74,2003.59,2003.45,2003.34,2003.22,2003.09,2004,2004.56,2003.59,2002.81,2002.54,2002.43,2002.33,2002.24,2002.16,2002.08,2002,2001.93,2001.86,2001.97,2001.82,2001.66,2001.6,2001.55,2001.5,2001.44,2001.41,2001.98,2001.4,2001.28,2001.22,2001.17,2001.14,2001.1,2001.06,2001.02,2000.99,2000.95,2000.92,2000.9,2000.87,2000.85,2000.82,2000.79,2000.77,2000.74,2000.72,2000.7,2000.68,2000.66,2000.65,2000.63,2000.63,2000.65,2000.61,2000.59,2000.6,2000.67,2001.03,2002.87,2001.51,2002.11,2000.84,2000.58,2000.5,2000.47,2000.45,2000.43,2000.42,2000.4,2000.39,2000.39,2000.39,2000.39,2000.39,2000.39,2000.48,1998.23,2001.58,2000.42,2000.36,2000.34,2000.35,2000.42,2000.94,2000.71,1999.57,2000.61,2000.32,2000.31,2000.3,2000.3,2000.31,2000.31,2000.33,2000.34,2000.34,2000.35,2000.36,2000.36,2000.36,2000.35,2000.34,2000.31,2000.3,2001.71,2000.52,2000.33,2001.38,2000.42,2000.21,2000.19,2000.19,2000.19,2000.19,2000.2,2000.21,2000.22,2000.23,2000.24,2000.25,2000.26,2000.31,2000.41,2000.32,2000.25,2000.22,2000.23,2000.22,2000.22,2000.23,2000.23,2000.23,2000.23,2000.22,2000.22,2000.3,2000.33,2000.36,2000.22,2000.34,2000.17,2000.16,2000.2,2000.79,2000.3,2000.53,2001.68,2002.17,2000.74,2000.26,2000.15,2000.11,2000.09,2000.08,2000.08,2000.08,2000.08,2000.08
2000.28,2000.26,2000.83,1999.54,2000.23,2000.19,2000.2,2000.25,2000.37,2000.53,2000.53,2000.37,2000.26,2000.39,1998.27,2001.06,2001.48,2000.59,2000.24,2000.15,2000.14,2000.25,1998.75,2000.28,2000.34,2001.3,2001.13,2000.24,2000.15,2000.14,2000.14,2000.14,2000.15,2000.15,2000.15,2000.16,2000.16,2000.17,2000.17,2000.17,2000.21,1998.93,2000.19,2000.19,2000.2,2000.22,2000.26,2000.36,2000.44,2000.31,2000.29,2000.34,1999.19,2001.18,2000.37,2000.32,2000.29,2000.29,2000.29,2000.3,2000.36,2000.39,2000.32,2000.31,2000.32,2000.34,2000.35,1999.9,2000.49,2000.34,2000.34,2000.35,2000.36,2000.36,2000.47,1999.34,2000.39,2000.52,2000.43,2000.4,2000.41,2000.44,2000.47,2000.45,2000.44,2000.44,2000.44,2000.45,2000.45,2000.46,2000.48,2000.5,2000.51,2000.52,2000.53,2000.55,2000.58,2000.63,2000.72,2000.88,2001.12,2001.27,2001.16,2000.95,2000.82,2000.76,2000.74,2000.75,2000.77,2000.79,2000.82,2000.87,2000.95,2001,2001.09,2001.28,2001.02,2001.05,2001.23,2001.37,2001.22,1999.39,2001.26,2001.28,2001.35,2001.44,2001.51,2001.54,2001.6,2001.68,2001.78,2001.89,2002.02,2002.16,2002.33,2002.51,2002.71,2002.9,2003.07,2003.2,2003.28,2003.32,2003.42,2003.3,2003.29,2003.31,2003.36,2003.43,2002.06,2003.7,2003.46,2003.82,2003.97,2004.18,2004.94,2002.61,2004.74,2004.81,2005.17,2003.56,2003.17,2005.79,2005.78,2005.98,2006.2,2006.44,2006.68,2006.96,2007.26,2007.58,2007.93,2008.27,2008.54,2008.72,2008.83,2008.9,2008.97,2009.08,2009.18,2009.28,2009.37,2009.45,2009.53,2009.6,2009.65,2009.69,2009.71,2009.71,2009.71,2009.73,2009.76,2009.57,2009.45,2009.34,2009.21,2009.08,2009.01,2009.11,2008.6,2008.43,2008.29,2008.02,2007.84,2007.59,2007.37,2007.16,2007.33,2006.71,2006.57,2006.26,2006.04,2005.82,2005.6,2005.39,2005.21,2005.05,2004.88,2004.65,2004.44,2004.27,2004.1,2003.94,2003.78,2003.62,2003.48,2003.34,2003.21,2003.14,2003.02,2003.15,2002.84,2002.64,2002.53,2002.42,2002.32,2002.24,2002.15,2002.08,2002.41,2001.95,2001.85,2001.78,2001.71,2001.65,2001.59,2001.53,2001.47,2001.43,2001.39,2001.34,2001.3,2001.26,2001.23,2001.19,2001.14,2001.1,2001.06,2001.02,2000.98,2000.94,2000.91,2000.88,2000.86,2000.83,2000.8,2000.78,2000.75,2000.73,2000.71,2000.69,2000.67,2000.65,2000.64,2000.62,2000.61,2000.6,2000.62,2000.62,2000.73,2001.55,1997.46,1993.87,2000.01,2001.15,2000.65,2000.54,2000.49,2000.46,2000.44,2000.42,2000.41,2000.4,2000.41,1999.45,2000.45,2000.45,2000.46,2000.47,2000.89,2000.64,2000.39,2000.36,2000.34,2000.35,2000.53,1997.56,2001.63,2000.5,2000.35,2000.31,2000.3,2000.3,2000.29,2000.3,2000.3,2000.3,2000.31,2000.31,2000.31,2000.31,2000.31,2000.31,2000.3,2000.29,2000.28,2000.24,2000.27,2000.26,2000.29,1999.76,2000.48,2000.21,2000.19,2000.19,2000.2,2000.2,2000.21,2000.23,2000.25,2000.27,2000.3,2000.31,2000.33,2000.34,2000.41,2000.36,2000.28,2000.25,2000.23,2000.21,2000.21,2000.22,2000.24,2000.21,2000.19,2000.18,2000.18,2000.22,2001.43,1997.79,2000.31,1999.45,2000.2,2000.17,2000.27,1999.78,2000.29,2000.27,2000.35,2000.36,2000.26,2000.54,2000.13,2000.1,2000.09,2000.08,2000.08,2000.08,2000.08,2000.08
2000.21,2000.2,2000.22,2000.22,2000.18,2000.16,2000.16,2000.18,2000.2,2000.23,2000.23,2000.21,2000.2,2000.22,2000.26,2000.27,2000.27,2000.21,2000.15,2000.13,2000.13,2000.21,2002.04,2001.2,2000.23,2000.21,2000.2,2000.16,2000.14,2000.14,2000.14,2000.15,2000.18,2000.18,2000.17,2000.17,2000.17,2000.17,2000.17,2000.17,2000.18,2000.19,2000.18,2000.19,2000.2,2000.21,2000.25,2000.36,2000.58,2000.47,2000.31,2000.31,2000.46,2000.63,2000.29,2000.28,2000.28,2000.28,2000.29,2000.29,2000.3,2000.31,2000.31,2000.32,2000.38,2000.97,2000.49,2000.92,2000.65,2000.35,2000.36,2000.39,2000.39,2000.37,2000.38,2000.4,2000.38,2000.39,2000.39,2000.4,2000.42,2000.47,2000.57,2000.61,2000.52,2000.47,2000.45,2000.46,2000.46,2000.47,2000.5,2000.64,2000.74,2000.56,2000.55,2000.57,2000.6,2000.68,2000.87,2001.45,2002.93,2002.71,2002.87,2001.49,2000.98,2000.82,2000.77,2000.77,2000.78,2000.81,2000.83,2000.86,2000.9,2000.93,2000.97,2001.02,2001.11,2001.1,2001.13,2001.16,2001.2,2000.34,2001.32,2001.32,2001.58,2002.63,2001.62,2001.65,2001.63,2001.71,2001.79,2001.89,2002,2002.12,2002.26,2002.4,2002.55,2002.69,2002.83,2002.94,2003.04,2003.11,2003.17,2003.21,2003.27,2003.34,2003.42,2003.51,2003.63,2003.73,2003.89,2003.99,2004.15,2004.36,2005.32,2006.43,2004.95,2005.07,2005.39,2007.15,2006.71,2006.09,2006.16,2006.37,2006.61,2006.87,2007.15,2007.43,2007.71,2008,2008.3,2008.6,2008.87,2009.1,2009.29,2009.46,2009.62,2009.76,2009.9,2010.05,2010.18,2010.3,2010.41,2010.5,2010.57,2010.61,2010.64,2010.65,2010.65,2010.61,2010.53,2010.44,2010.33,2010.19,2010.04,2009.88,2009.81,2010.28,2009.33,2009.25,2007.96,2008.76,2008.43,2008.17,2007.91,2007.68,2007.44,2007.19,2006.94,2006.72,2006.53,2006.24,2005.98,2005.75,2005.55,2005.61,2006.47,2005.03,2004.71,2004.5,2004.31,2004.14,2003.98,2003.82,2003.65,2003.49,2003.35,2003.22,2003.08,2002.95,2002.82,2002.71,2002.62,2002.52,2002.41,2002.32,2002.23,2002.15,2002.25,2002.01,2001.9,2001.83,2001.76,2001.7,2001.63,2001.57,2001.52,2001.46,2001.42,2001.38,2001.35,2001.35,2001.36,2001.32,2001.23,2001.15,2002.01,2001.23,2001,2000.96,2000.92,2000.89,2000.87,2000.84,2000.81,2000.79,2000.76,2000.74,2000.72,2000.7,2000.68,2000.66,2000.64,2000.63,2000.61,2000.64,1998.5,2000.64,2000.72,2001.34,1999.9,1996.1,2002.63,2001.14,2000.75,2000.63,2000.55,2000.49,2000.46,2000.43,2000.42,2000.42,2000.42,2000.48,2000.54,2000.87,2000.97,2000.59,2000.46,2000.48,2000.53,2000.39,2000.36,2000.35,2000.44,2001.75,1996.82,2000.64,2000.33,2000.3,2000.29,2000.29,2000.29,2000.28,2000.28,2000.29,2000.29,2000.29,2000.29,2000.29,2000.29,2000.29,2000.25,2000.24,2000.23,2000.22,2000.22,2000.21,2000.22,2000.24,2000.22,2000.2,2000.2,2000.2,2000.2,2000.21,2000.23,2000.25,2000.29,2000.34,2000.39,2000.43,2000.46,2000.49,1999.34,2001.26,2000.43,2001.63,2000.26,2000.22,2000.21,2000.38,1998.91,2000.58,2000.18,2000.16,2000.16,2000.19,2000.55,2001.03,2000.22,2000.16,2000.17,2000.29,2000.82,2000.95,2000.43,1999.91,2000.18,2000.16,2000.15,2000.36,2000.11,2000.09,2000.08,2000.08,2000.08,2000.08,2000.11,2000.08
2000.16,2000.16,2000.16,2000.21,2000.47,2000.18,2000.14,2000.14,2000.15,2000.15,2000.15,2000.16,2000.38,2001.19,2000.22,2000.15,2000.15,2000.14,2000.12,2000.12,2000.11,2000.13,2000.18,2000.19,2000.15,2000.14,2000.14,2000.14,2000.14,2000.14,2000.17,2000.21,2002.51,2000.68,2000.21,2000.22,2000.25,2000.22,2000.19,2000.18,2000.18,2000.18,2000.18,2000.19,2000.21,2000.22,2000.28,2000.81,1997.63,2001.89,2000.41,2000.41,1998.13,2000.31,2000.27,2000.27,2000.27,2000.28,2000.28,2000.29,2000.31,2000.31,2000.31,2000.32,2000.57,1999.21,2000.74,2000.37,2000.35,2000.36,2000.42,2002.38,2001,2000.41,2000.4,2000.42,2000.4,2000.39,2000.4,2000.41,2000.45,2000.6,2001.91,2001.47,2000.89,2000.52,2000.47,2000.47,2000.47,2000.49,2000.53,2001.82,1998.19,2000.64,2000.56,2000.58,2000.63,2000.73,2001.08,2003.21,1988.53,1991.51,1994.46,2002.85,2001.19,2000.88,2000.8,2000.79,2000.8,2000.82,2000.84,2000.87,2000.9,2000.94,2000.99,2001.11,1999.12,2001.26,2001.23,2001.2,2001.22,2001.26,2001.3,2001.35,2001.71,2002.05,2000.78,2001.68,2001.66,2001.74,2001.82,2001.9,2002,2002.11,2002.23,2002.36,2002.48,2002.6,2002.72,2002.84,2002.94,2003.03,2003.12,2003.21,2003.32,2003.44,2003.56,2003.65,2003.74,2003.87,2004.01,2004.17,2004.33,2004.52,2004.75,2004.97,2005.13,2005.33,2005.59,2005.93,2006.19,2006.34,2006.54,2006.8,2007.08,2007.37,2007.65,2007.94,2008.23,2008.55,2008.97,2009.19,2009.43,2009.69,2009.93,2010.2,2010.33,2010.69,2010.79,2010.96,2011.11,2011.25,2011.38,2011.47,2011.55,2011.62,2011.64,2011.65,2012.11,2012.54,2011.52,2011.41,2011.29,2011.16,2010.99,2010.8,2010.61,2010.39,2010.15,2009.92,2010.43,2008,2009.15,2008.84,2008.56,2008.28,2008.01,2007.74,2007.47,2007.51,2004.65,2006.78,2006.38,2006.15,2006.04,2006.29,2002.9,2005.39,2004.98,2004.76,2004.55,2004.36,2004.25,2004.43,2003.86,2003.66,2003.5,2003.35,2003.21,2003.07,2002.94,2002.81,2002.7,2002.59,2002.48,2002.4,2002.3,2002.22,2002.13,2002.05,2001.97,2001.89,2001.81,2001.75,2001.68,2001.62,2001.56,2001.5,2001.46,2001.43,2001.44,2001.6,2002,2001.99,2001.49,2001.23,2001.17,2001.09,2001.02,2000.98,2000.94,2000.91,2000.88,2000.85,2000.83,2000.8,2000.78,2000.75,2000.73,2000.71,2000.69,2000.67,2000.65,2000.63,2000.62,2000.62,2000.63,2000.62,2000.67,2000.87,2001.5,2002.05,2001.47,2001.25,2001.24,2000.95,2000.68,2000.55,2000.49,2000.45,2000.45,2000.79,2000.47,2000.47,2000.87,1998,1996.51,2001.24,2000.57,2001.26,2001.36,2000.79,2001.1,2000.38,2000.4,2000.57,2001,2000.42,2000.31,2000.29,2000.29,2000.28,2000.28,2000.28,2000.28,2000.27,2000.27,2000.27,2000.27,2000.28,2000.26,2000.28,2000.28,2000.23,2000.22,2000.21,2000.21,2000.21,2000.2,2000.2,2000.2,2000.2,2000.2,2000.2,2000.21,2000.23,2000.25,2000.3,2000.36,2000.45,2000.58,2000.71,2000.79,2000.78,2000.81,2000.8,2002.81,2000.85,2000.29,2000.23,2000.21,2000.22,2000.28,2000.21,2000.17,2000.16,2000.15,2000.15,2000.17,2000.18,2000.15,2000.15,2000.18,2000.58,1997.63,1996.63,2000.81,2000.22,2000.14,2000.13,2000.14,2000.12,2000.09,2000.09,2000.08,2000.08,2000.08,2000.1,1998.66,2000.1
2000.14,2000.13,2000.14,2000.31,1997.79,2000.21,2000.13,2000.12,2000.12,2000.12,2000.13,2000.14,2000.47,1999.28,2000.21,2000.13,2000.12,2000.12,2000.11,2000.11,2000.11,2000.11,2000.12,2000.13,2000.13,2000.13,2000.13,2000.13,2000.13,2000.18,1998.83,2000.29,1999.43,2001.32,2000.25,2000.61,2002.74,2000.52,2000.35,2000.21,2000.19,2000.19,2000.19,2000.21,1999.21,2000.26,2000.28,2000.83,1997.39,2001.61,2000.4,2000.3,2000.33,2000.28,2000.28,2000.27,2000.27,2000.28,2000.29,2000.31,1998.58,2000.35,2000.32,2000.32,2000.37,2000.58,1998.44,2000.37,2000.35,2000.39,1999.19,2000.46,2001.44,2000.44,2000.61,2001.55,2000.49,2000.41,2000.41,2000.43,2000.49,2001.33,1998.98,1999.1,2001.5,2000.55,2000.48,2000.48,2000.48,2000.49,2000.53,2000.7,2000.85,2000.59,2000.57,2000.59,2000.64,2000.76,2001.16,2003.6,1991.53,1988.34,1991.38,2004.06,2001.31,2000.91,2000.82,2000.8,2000.81,2000.84,2000.86,2000.89,2000.92,2000.96,2001.02,2001.18,2001.67,2002.4,2001.77,2001.33,2001.26,2001.28,2001.32,2001.37,2001.53,2001.56,2001.61,2001.63,2001.7,2002.03,2001.87,2001.93,2002.02,2002.13,2002.24,2002.35,2002.46,2002.58,2002.69,2002.81,2002.92,2003.02,2003.13,2003.27,2003.45,2003.77,2004.05,2003.95,2003.94,2004.04,2004.19,2004.36,2004.54,2004.75,2004.96,2005.17,2005.39,2005.64,2005.9,2006.28,2006.11,2006.78,2006.99,2007.29,2007.59,2007.9,2008.21,2008.54,2008.87,2009.19,2009.67,2009.87,2010.17,2010.53,2010.78,2011.05,2011.76,2011.58,2011.75,2011.97,2012.17,2012.35,2012.5,2012.63,2012.73,2012.66,2012.92,2012.83,2012.87,2012.92,2012.68,2012.55,2012.41,2011.24,2012.13,2011.81,2011.57,2011.33,2011.08,2011.06,2010.63,2010.38,2009.89,2009.55,2009.25,2008.96,2009.44,2009.07,2008.06,2007.93,2009.66,2007.19,2006.81,2006.57,2006.81,2006.07,2005.87,2005.53,2005.29,2005.04,2004.81,2004.6,2004.56,2002.53,2004.08,2003.85,2003.82,2003.58,2003.35,2003.2,2003.06,2002.92,2002.8,2002.69,2002.58,2002.47,2002.36,2002.26,2002.2,2002.11,2002.03,2001.95,2001.87,2001.8,2001.73,2001.66,2001.6,2001.54,2001.49,2001.48,2001.56,2002.38,1999.55,1999.07,2002.46,2001.36,2001.16,2001.09,2001.04,2001,2000.96,2000.93,2000.9,2000.87,2000.84,2000.81,2000.79,2000.76,2000.74,2000.71,2000.69,2000.68,2000.66,2000.64,2000.63,2000.63,2000.62,2000.62,2000.63,2000.81,2001.69,2000.96,2001.42,2005.88,2002.76,2002.73,2001.02,2000.7,2000.66,2000.5,2000.47,2000.21,2000.53,2000.49,2000.96,1996.73,1995.29,2001.42,2000.66,1996.16,1996.78,2000.78,2000.85,2000.61,2001,2000.43,2000.36,2000.32,2000.3,2000.29,2000.28,2000.28,2000.27,2000.27,2000.27,2000.27,2000.27,2000.24,2000.24,2000.26,2000.43,2000.78,1999.2,2000.25,2000.22,2000.21,2000.21,2000.21,2000.21,2000.21,2000.21,2000.2,2000.2,2000.21,2000.22,2000.24,2000.28,2000.35,2000.47,2000.67,2001,2001.44,2001.76,2001.66,2001.26,2001,2002.42,2000.55,2000.32,2000.25,2000.22,2000.2,2000.18,2000.17,2000.16,2000.15,2000.15,2000.14,2000.14,2000.14,2000.13,2000.14,2000.17,2000.48,1999.8,1998.72,2000.66,2000.21,2000.13,2000.18,1999.08,2000.24,2000.1,2000.1,2000.09,2000.08,2000.08,2000.08,2000.09,2000.11
2000.12,2000.12,2000.12,2000.14,2000.18,2000.13,2000.12,2000.12,2000.13,2000.12,2000.12,2000.12,2000.16,2000.19,2000.14,2000.12,2000.11,2000.11,2000.11,2000.1,2000.1,2000.1,2000.12,2000.12,2000.12,2000.12,2000.13,2000.13,2000.13,2000.16,2000.35,2000.2,2000.27,2000.24,2000.26,2002.67,1995.92,2001.5,1997.5,2000.31,2000.86,2000.36,2000.19,2000.21,2000.33,2000.23,2000.25,2000.35,2000.59,2000.47,2000.3,2000.27,2000.27,2000.37,2000.64,2000.28,2000.28,2000.28,2000.29,2000.3,2000.4,2000.35,2000.33,2000.33,2000.33,2000.36,2000.4,2000.35,2000.35,2000.37,2000.42,2000.44,2000.43,2000.42,2000.95,1997.9,2000.58,2000.43,2000.43,2000.44,2000.49,2001.05,2001.26,2001.9,2000.77,2000.53,2000.49,2000.49,2000.49,2000.5,2000.52,2000.54,2000.56,2000.56,2000.57,2000.6,2000.65,2000.75,2001.04,2002.21,1996.92,1992.51,1996.21,2002.58,2001.18,2000.89,2000.83,2000.82,2000.83,2000.85,2000.88,2000.9,2000.93,2000.98,2001.06,2001.37,2002.5,1996.24,2001.73,2001.57,2001.31,2001.31,2001.35,2001.44,1999.26,2001.58,2001.57,2001.64,2001.75,2000.82,2001.94,2001.96,2002.05,2002.15,2002.25,2002.36,2002.48,2002.81,2002.72,2002.83,2002.94,2003.06,2003.2,2003.37,2003.75,2006.71,2001.44,2005.21,2004.19,2004.23,2004.38,2004.56,2004.77,2004.99,2005.22,2005.45,2005.71,2005.98,2006.26,2006.61,2008.31,2007.22,2007.48,2007.82,2008.17,2008.53,2008.87,2009.21,2009.55,2009.91,2010.28,2010.65,2011.07,2008.82,2011.82,2012.01,2012.33,2012.62,2012.89,2013.14,2013.37,2013.57,2013.75,2013.91,2014.02,2014.11,2014.14,2014.13,2014.13,2013.27,2013.95,2013.79,2013.64,2013.49,2013.24,2012.98,2012.71,2012.42,2012.12,2011.84,2011.49,2011.1,2010.75,2010.39,2010.02,2009.66,2009.72,2009.36,2009.15,2006.99,2007.96,2007.6,2007.27,2006.95,2006.65,2006.36,2006.09,2005.84,2003.88,2005.36,2005.06,2004.84,2004.65,2004.47,2004.23,2004.08,2002.72,2003.77,2003.49,2003.34,2003.19,2003.05,2002.91,2002.79,2002.67,2002.56,2002.45,2002.34,2002.25,2002.16,2002.08,2002.03,2001.94,2001.85,2001.78,2001.71,2001.65,2001.59,2001.54,2001.52,2001.64,2003.07,1996.13,1995.69,2003.39,2001.43,2001.19,2001.11,2001.06,2001.01,2000.98,2000.94,2000.91,2000.89,2000.86,2000.83,2000.8,2000.78,2000.75,2000.73,2000.7,2000.68,2000.67,2000.65,2000.66,2001.09,2001.03,2000.77,2001.3,2000.65,2000.71,2000.9,2002.24,1997.04,1995.54,1999.46,2001.54,2001.55,1997.98,2000.65,2000.48,2000.46,2000.49,2000.62,2000.65,2001.21,2001.41,2000.67,2000.49,2000.79,1998.8,2000.46,2000.5,2002.78,1997.36,2000.51,2000.33,2000.3,2000.29,2000.28,2000.28,2000.27,2000.27,2000.27,2000.24,2000.24,2000.23,2000.25,2000.25,2000.28,2002.41,1996.71,2000.54,2000.24,2000.21,2000.21,2000.32,2000.34,2000.31,2000.27,2000.23,2000.22,2000.21,2000.22,2000.23,2000.26,2000.32,2000.42,2000.63,2001.07,2002.07,2004.12,2006.51,2005.65,2003.07,2001.57,2000.41,2000.77,2000.37,2000.28,2000.23,2000.2,2000.18,2000.17,2000.16,2000.15,2000.15,2000.14,2000.14,2000.13,2000.13,2000.13,2000.15,2000.22,2000.44,2000.52,2001.15,2000.51,2000.13,2000.16,2000.99,2000.19,2000.11,1999.43,2000.15,2000.08,2000.08,2000.08,2000.09,2000.11
2000.11,2000.11,2000.11,2000.11,2000.11,2000.11,2000.11,2000.19,2000.32,2000.14,2000.11,2000.12,2000.24,2000.62,2000.17,2000.11,2000.11,2000.1,2000.1,2000.1,2000.1,2000.12,2000.12,2000.12,2000.12,2000.12,2000.13,2000.13,2000.13,2000.14,2000.15,2000.17,1998.27,2000.2,2000.21,2000.46,2001,2000.49,2000.57,2000.23,2000.24,2000.21,2000.19,2000.19,2000.21,2000.23,2000.23,2000.25,2000.27,2000.28,2000.27,2000.27,2000.27,2000.39,2000.77,2000.29,2000.29,2000.29,2000.29,2000.3,2000.33,2000.39,2000.35,2000.8,2000.36,2000.34,2000.35,2000.35,2000.36,2000.37,2000.38,2000.39,2000.39,2000.41,2000.46,2000.54,2000.46,2000.45,2000.47,2000.5,2000.49,2000.51,2000.56,2000.58,2000.54,2000.5,2000.5,2000.51,2000.51,2000.52,2000.53,2000.54,2000.55,2000.56,2000.58,2000.61,2000.65,2000.74,2000.9,2001.26,2002.13,2002.96,2002.34,2001.39,2000.99,2000.86,2000.83,2000.84,2000.86,2000.87,2000.89,2000.92,2000.95,2001,2001.08,2001.38,2002.66,1996.37,2001.89,2001.59,2001.34,2001.33,2001.37,2001.43,2001.52,2001.54,2001.6,2001.67,2001.75,2002.19,2001.97,2001.99,2002.08,2002.18,2002.29,2002.39,2002.53,2003.15,2002.77,2002.87,2002.99,2003.14,2003.29,2003.51,2004.52,2003.51,1998.97,2006.78,2004.4,2004.41,2004.58,2004.79,2005.01,2005.24,2005.49,2005.77,2006.05,2006.33,2006.62,2006.96,2007.31,2007.65,2008.01,2008.46,2008.97,2009.39,2009.67,2009.97,2010.35,2010.74,2011.15,2011.55,2011.98,2012.51,2012.8,2013.14,2013.49,2013.82,2014.15,2014.46,2014.74,2014.99,2015.24,2016.06,2015.96,2015.63,2015.7,2015.67,2015.63,2015.55,2015.43,2015.27,2015.08,2014.85,2014.59,2014.28,2013.95,2013.62,2013.27,2012.91,2012.52,2012.11,2011.68,2011.28,2010.89,2010.48,2010.08,2009.67,2009.32,2008.96,2008.51,2008.11,2007.76,2007.42,2007.09,2006.76,2006.46,2006.35,2006.57,2005.62,2005.33,2005.1,2005.01,2004.47,2004.51,2004.3,2004.16,2003.85,2003.65,2003.47,2003.32,2003.18,2003.03,2002.89,2002.77,2002.66,2002.69,2002.45,2002.34,2002.41,2002.36,2001.11,2002.05,2001.88,2001.8,2001.76,2001.69,2001.63,2001.57,2001.54,2001.6,2002.09,2003.48,2002.94,2002.06,2001.36,2001.19,2001.12,2001.07,2001.03,2001,2000.96,2000.95,2001.04,2000.92,2000.85,2000.82,2000.79,2000.76,2000.74,2000.71,2000.69,2000.67,2000.66,2000.67,2002.28,2001.61,2000.67,2000.69,2000.61,2000.66,2000.85,2002.07,1997.42,1994.39,1999.86,2001.48,2001.02,2001.66,2000.83,2000.53,2000.46,2000.74,1997.32,2000.79,2000.51,2000.49,2000.43,2000.4,2000.4,2000.42,2000.39,2001.18,1997.78,2000.69,2000.38,2000.31,2000.3,2000.29,2000.28,2000.25,2000.24,2000.24,2000.23,2000.23,2000.24,2000.23,2000.51,2001.67,2000.26,2000.5,2001.02,2000.33,2000.22,2000.21,2000.21,2000.32,2000.48,1999.44,2001.12,2000.43,2000.38,2000.23,2000.22,2000.24,2000.28,2000.35,2000.49,2000.82,2001.74,2005.02,2001.84,1996.67,1997.99,2006.27,2002.94,2001.22,2000.65,2000.41,2000.3,2000.24,2000.22,2000.2,2000.18,2000.16,2000.15,2000.15,2000.14,2000.14,2000.13,2000.13,2000.13,2000.13,2000.14,2000.17,2000.21,2001.25,2000.47,2000.12,2000.11,2000.11,2000.09,2000.1,2000.23,2000.11,2000.26,2000.17,2000.08,2000.09,2000.11
2000.11,2000.1,2000.1,2000.1,2000.1,2000.1,2000.11,2000.15,2000.71,2000.51,2000.11,2000.12,2000.6,1997.32,2000.25,2000.11,2000.1,2000.1,2000.1,2000.1,2000.1,2000.12,2000.12,2000.12,2000.12,2000.13,2000.13,2000.13,2000.13,2000.14,2000.14,2000.15,2000.17,2000.17,2000.17,2000.2,2000.23,2000.22,2000.2,2000.19,2000.18,2000.19,2000.19,2000.2,2000.23,1999.59,2000.27,2000.24,2000.25,2000.26,2000.35,2000.48,2000.32,2000.3,2000.3,2000.3,2000.69,2000.33,2000.3,2000.31,2000.32,2000.33,2000.35,2001.92,2000.37,2000.35,2000.35,2000.36,2000.37,2000.38,2000.38,2000.39,2000.4,2000.41,2000.42,2000.44,2000.45,2000.5,2000.71,2000.94,2000.64,2000.52,2000.5,2000.5,2000.5,2000.51,2000.56,2000.69,2000.56,2000.6,2000.95,2000.56,2000.56,2000.57,2000.59,2000.67,2000.73,2001.07,2001.48,2000.94,2001.06,2001.19,1999.91,2000.98,2000.87,2000.83,2000.84,2000.91,2001.07,2000.95,2000.92,2000.93,2000.97,2001.01,2001.08,2001.22,2001.68,2002.39,2001.81,2001.4,2001.34,2001.35,2001.4,2001.49,2001.84,2001.58,2001.63,2001.7,2001.78,2001.88,2001.95,2002.03,2002.12,2002.22,2002.32,2002.43,2002.57,2002.7,2002.82,2002.95,2003.1,2003.38,2003.56,2003.61,2004.84,2001.72,2006.1,2004.74,2004.48,2004.6,2004.8,2005.03,2005.27,2005.52,2005.81,2006.1,2006.4,2006.71,2007.06,2007.41,2007.78,2008.17,2008.65,2009.35,2010.93,2014.56,2011.05,2010.91,2011.23,2011.64,2012.14,2012.65,2013.09,2013.52,2013.95,2014.41,2014.84,2015.25,2015.62,2015.97,2016.28,2016.57,2016.9,2016.07,2018.06,2017.38,2016.17,2017.55,2016.85,2017.29,2017.11,2016.92,2016.7,2016.55,2016.16,2015.78,2015.42,2015.04,2014.6,2014.15,2013.69,2013.24,2012.78,2012.4,2011.91,2011.4,2011.08,2010.49,2010.02,2009.55,2009.13,2008.72,2008.31,2007.91,2007.56,2007.21,2006.87,2006.68,2006.7,2005.95,2005.65,2005.38,2005.71,2005.36,2004.76,2003.42,2005.2,2004.03,2003.82,2003.63,2003.46,2003.3,2003.15,2003.02,2002.91,2002.77,2003.1,2002.57,2002.1,2002.63,2002.51,2002.35,2002.06,2001.94,2001.85,2001.78,2001.71,2001.64,2001.58,2001.56,2001.55,2001.61,2001.76,2001.72,2001.47,2001.3,2001.2,2001.14,2001.09,2001.05,2001.02,2000.98,2000.99,1999.12,2001.18,2000.88,2000.84,2000.81,2000.78,2000.75,2000.72,2000.7,2000.68,2000.66,2000.65,2000.66,2000.65,2000.61,2000.6,2000.6,2000.63,2000.73,2001.15,2002.63,2004.44,2001.23,2001,2001.1,1997.87,2000.25,2000.66,2000.47,2000.55,2001.29,2000.54,2000.42,2000.39,2000.38,2000.36,2000.35,2000.35,2000.36,2001.13,2000.65,2000.37,2000.32,2000.27,2000.26,2000.25,2000.25,2000.24,2000.24,2000.23,2000.23,2000.24,1999.14,2000.27,2000.23,2000.23,2000.22,2000.24,2000.25,2000.22,2000.21,2000.2,2000.2,2000.21,2000.34,1999,1998.35,2001.57,2000.1,2000.25,2000.23,2000.25,2000.29,2000.37,2000.54,2001,2002.7,2006.8,1994.79,1990.14,1991.33,1998.72,2004.92,2001.53,2000.73,2000.44,2000.32,2000.26,2000.57,2000.4,2000.18,2000.17,2000.16,2000.15,2000.14,2000.14,2000.13,2000.13,2000.13,2000.12,2000.12,2000.12,2000.13,2000.14,2000.13,2000.11,2000.11,2000.1,2000.08,2000.08,2000.08,2000.09,2000.34,2000.27,2000.09,2000.09,2000.1
2000.13,2000.1,2000.1,2000.1,2000.11,2000.12,2000.11,2000.11,2000.12,2000.11,2000.1,2000.11,2000.16,2000.25,2000.14,2000.11,2000.1,2000.1,2000.1,2000.1,2000.11,2000.12,2000.12,2000.12,2000.13,2000.15,2000.27,2000.15,2000.14,2000.14,2000.14,2000.15,2000.15,2000.16,2000.16,2000.17,2000.18,2000.18,2000.18,2000.18,2000.18,2000.19,2000.19,2000.2,2000.22,2000.39,2000.24,2000.27,2000.68,2000.28,2000.88,1997.73,2000.46,2000.34,2000.33,2000.33,2000.89,2000.34,2000.31,2000.31,2000.32,2000.33,2000.34,2000.35,2000.35,2000.36,2000.36,2000.37,2000.38,2000.39,2000.39,2000.4,2000.41,2000.42,2000.43,2000.45,2000.48,2000.62,2002.25,1996.93,2001.37,2000.56,2000.5,2000.5,2000.5,2000.52,2000.93,1997.7,2000.7,2000.66,2001.39,2000.58,2000.57,2000.58,2000.61,2001.25,2002.17,2001.9,1999.06,2000.86,2000.82,2000.86,2000.86,2000.84,2000.82,2000.82,2000.85,2001.26,1997.66,2001.42,2000.94,2000.95,2000.98,2001.02,2001.07,2001.14,2001.25,2001.84,2001.41,2001.32,2001.34,2001.37,2001.42,2001.53,2001.7,2001.63,2001.66,2001.73,2001.81,2001.89,2001.98,2002.07,2002.17,2002.27,2002.38,2002.5,2002.65,2002.97,2002.94,2003.11,2003.25,2003.96,2003.46,2003.68,2003.95,2004.31,2004.39,2004.46,2004.6,2004.8,2005.03,2005.28,2005.65,2005.84,2006.13,2006.44,2006.78,2007.14,2007.51,2007.89,2008.31,2008.77,2009.33,2010.61,2006.95,2005.05,2013.75,2011.95,2012.21,2012.71,2013.64,2015.06,2014.6,2014.85,2015.36,2015.86,2016.34,2016.83,2017.29,2017.71,2018.1,2018.43,2018.74,2019.08,2017.12,2019.31,2019.36,2019.36,2019.35,2019.21,2019.04,2018.83,2018.61,2016.37,2018.17,2017.5,2017.06,2016.15,2016.12,2015.59,2015.06,2014.52,2013.96,2013.52,2012.98,2012.55,2009.05,2011.44,2009.06,2010.34,2009.81,2009.35,2008.92,2008.48,2008.06,2007.68,2007.31,2007,2006.83,2006.31,2006.04,2005.71,2005.55,2005.24,2004.93,2004.91,2004.55,2004.2,2004.04,2003.83,2003.61,2003.43,2003.28,2003.16,2001.4,2003.03,2002.73,2002.62,2002.68,2002.43,2002.29,2002.19,2002.1,2002,2001.92,2001.83,2001.76,2001.69,2001.62,2001.56,2001.51,2001.48,2001.45,2001.43,2001.35,2001.27,2001.21,2001.15,2001.11,2001.07,2001.04,2001.01,2000.99,2001.01,2000.96,2000.91,2000.87,2000.83,2000.8,2000.77,2000.74,2000.71,2000.69,2000.67,2000.65,2000.64,2000.62,2000.6,2000.59,2000.65,2001.17,2000.65,2000.74,2000.92,2001.01,2000.87,2000.71,2000.97,1998.57,2001.03,2000.64,2000.46,2000.43,2000.43,2000.41,2000.39,2000.37,2000.36,2000.35,2000.35,2000.34,2000.31,2000.41,2000.33,2000.29,2000.28,2000.27,2000.26,2000.25,2000.25,2000.24,2000.24,2000.23,2000.23,2000.23,2000.24,2000.23,2000.22,2000.21,2000.21,2000.23,2000.32,2000.22,2000.2,2000.2,2000.2,2000.21,2000.25,2000.46,2000.52,2000.76,2000.39,2000.24,2000.23,2000.25,2000.29,2000.37,2000.55,2001.04,2003.21,2006.09,1994.22,1989.6,1990.79,1998.11,2005.2,2001.57,2000.74,2000.45,2000.33,2000.27,2000.36,2000.3,2000.19,2000.18,2000.25,2000.29,2000.15,2000.14,2000.14,2000.13,2000.13,2000.12,2000.11,2000.11,2000.11,2000.11,2000.11,2000.16,2000.88,2000.11,2000.09,2000.08,2000.08,2000.08,2000.18,1998.66,2000.1,2000.08,2000.09
2000.1,2000.09,2000.1,2000.11,2000.32,2000.74,2000.15,2000.1,2000.1,2000.1,2000.1,2000.1,2000.11,2000.11,2000.1,2000.1,2000.09,2000.1,2000.1,2000.11,2000.11,2000.12,2000.12,2000.12,2000.13,2000.19,1998.42,2000.17,2000.14,2000.14,2000.14,2000.15,2000.15,2000.15,2000.16,2000.17,2000.17,2000.18,2000.18,2000.18,2000.18,2000.19,2000.2,2000.26,2000.23,2000.22,2000.23,2000.27,2000.55,2000.28,2000.39,2000.67,2000.78,2000.57,2000.45,2000.36,2000.33,2000.32,2000.32,2000.32,2000.33,2000.34,2000.35,2000.36,2000.36,2000.37,2000.38,2000.38,2000.39,2000.4,2000.41,2000.42,2000.43,2000.44,2000.45,2000.48,2000.57,2000.72,2003.75,1998.14,2001.21,2000.57,2000.51,2000.5,2000.51,2000.52,2000.61,2001,2000.65,2000.56,2000.57,2000.57,2000.58,2000.59,2000.61,2000.67,2000.7,2000.77,2000.82,2000.75,2000.75,2000.77,2000.79,2000.8,2000.81,2000.82,2000.85,2001.05,2002.64,2001.13,2000.95,2000.96,2001,2001.04,2001.08,2001.13,2001.18,2001.33,2001.3,2001.31,2001.35,2001.39,2001.45,2001.51,2001.6,2001.73,2001.72,2001.77,2001.85,2001.95,2002.03,2002.12,2002.22,2002.32,2002.44,2002.56,2002.73,2003.31,2003.29,2004.22,2003.81,2003.58,2003.66,2003.77,2003.96,2004.17,2004.36,2004.56,2004.78,2005.02,2005.27,2005.55,2006.2,2006.17,2006.47,2006.82,2007.2,2007.58,2007.98,2008.42,2008.89,2009.38,2009.98,2011.27,2008.53,2013.63,2015.61,2012.96,2013.29,2013.84,2014.79,2012.94,2016.32,2016.31,2016.91,2017.53,2018.12,2018.67,2019.18,2019.68,2020.16,2020.6,2020.92,2021.22,2021.47,2021.6,2021.68,2021.7,2021.64,2021.51,2021.32,2021.06,2020.75,2020.41,2019.94,2019.42,2018.92,2018.41,2017.82,2017.21,2016.57,2015.96,2015.35,2014.72,2014.08,2013.5,2012.98,2012.31,2011.74,2011.14,2010.59,2010.06,2009.55,2009.09,2008.63,2008.19,2007.8,2007.55,2008.55,2006.78,2004.99,2006.43,2005.7,2005.43,2005.71,2005.01,2004.63,2004.38,2004.68,2004.57,2003.77,2003.57,2003.4,2003.26,2003.21,2002.99,2002.82,2002.72,2002.62,2002.48,2002.36,2002.26,2002.17,2002.07,2001.98,2001.89,2001.81,2001.74,2001.67,2001.6,2001.53,2001.47,2001.42,2001.37,2001.31,2001.25,2001.2,2001.14,2001.1,2001.09,2001.06,2001.03,2001.01,2001,2001,2001.03,2000.94,2000.88,2000.83,2000.79,2000.75,2000.73,2000.7,2000.68,2000.66,2000.64,2000.62,2000.61,2000.59,2000.64,2001.09,2000.6,2000.61,2000.64,2000.64,2000.61,2000.57,2000.61,2000.77,2000.68,2000.5,2000.44,2000.42,2000.41,2000.39,2000.35,2000.34,2000.33,2000.33,2000.32,2000.32,2000.37,2000.32,2000.3,2000.29,2000.29,2000.28,2000.26,2000.26,2000.25,2000.24,2000.24,2000.23,2000.23,2000.23,2000.22,2000.22,2000.21,2000.21,2000.21,2000.25,1998.67,2000.23,2000.2,2000.2,2000.2,2000.2,2000.21,2000.24,2000.66,2000.38,2000.25,2000.22,2000.23,2000.25,2000.28,2000.36,2000.52,2000.89,2001.93,2006.06,1999.93,1994.91,1996.19,2004.21,2003.32,2001.28,2000.67,2000.43,2000.33,2000.27,2000.24,2000.21,2000.2,2000.21,1998.96,2000.36,2000.16,2000.15,2000.14,2000.14,2000.13,2000.13,2000.12,2000.11,2000.11,2000.14,2000.38,2000.17,2000.84,2000.11,2000.09,2000.09,2000.08,2000.08,2000.09,2000.1,2000.08,2000.08,2000.08
2000.09,2000.09,2000.1,2000.11,2000.52,1998.15,2000.19,2000.1,2000.1,2000.09,2000.1,2000.1,2000.1,2000.1,2000.1,2000.09,2000.09,2000.1,2000.1,2000.11,2000.11,2000.12,2000.12,2000.13,2000.15,2000.17,2000.16,2000.14,2000.14,2000.14,2000.14,2000.15,2000.15,2000.16,2000.16,2000.17,2000.18,2000.19,2000.19,2000.19,2000.19,2000.19,2000.21,1999.88,2000.29,2000.22,2000.23,2000.24,2000.25,2000.28,2000.55,2001.8,1999.82,2004.71,2001.08,2000.48,2000.36,2000.33,2000.33,2000.34,2000.35,2000.36,2000.42,2000.42,2000.39,2000.39,2000.41,2000.41,2000.42,2000.42,2000.43,2000.44,2000.44,2000.45,2000.48,2000.56,1997.11,2002.07,2001.03,2000.85,2000.64,2000.54,2000.52,2000.52,2000.52,2000.53,2000.54,2000.56,2000.56,2000.57,2000.59,2000.58,2000.59,2000.6,2000.61,2000.63,2000.65,2000.68,2000.7,2000.71,2000.73,2000.75,2000.78,2000.94,2000.83,2000.82,2000.85,2000.89,2000.94,2000.95,2000.96,2000.98,2001.01,2001.05,2001.09,2001.13,2001.18,2001.23,2001.27,2001.32,2001.37,2001.42,2001.47,2001.54,2001.64,2002.38,2001.76,2001.81,2002,2002.17,2002.08,2002.17,2002.27,2002.39,2002.54,2002.65,2002.78,2003.02,2004.58,1998.46,2003.27,2003.79,2003.85,2003.94,2004.09,2004.29,2004.5,2004.74,2004.99,2005.25,2005.53,2005.84,2006.17,2006.5,2006.85,2007.23,2007.63,2008.05,2008.52,2009,2009.49,2010.04,2010.67,2011.48,2012.87,2014.01,2013.68,2014,2014.89,2015.17,2015.85,2016.62,2017.32,2018.01,2018.71,2019.39,2020.11,2020.79,2021.42,2022,2022.58,2023.61,2023.45,2023.81,2024.08,2024.28,2024.39,2024.53,2024.55,2024.19,2023.96,2023.64,2023.24,2022.76,2022.26,2021.71,2021.1,2020.45,2019.74,2019.04,2018.34,2017.61,2016.87,2016.14,2015.58,2014.75,2014,2013.33,2012.68,2012.03,2011.41,2010.85,2010.29,2009.72,2009.22,2008.76,2008.4,2008.39,2008.19,2007.24,2007.69,2006.59,2006,2005.74,2003.43,2005.52,2004.84,2004.58,2004.36,2004.15,2003.92,2003.72,2003.53,2003.37,2003.22,2003.07,2002.93,2003.04,2001.69,2002.59,2002.45,2002.34,2002.25,2002.15,2002.06,2001.97,2001.88,2001.79,2001.72,2001.64,2001.57,2001.5,2001.44,2001.38,2001.32,2001.27,2001.22,2001.17,2001.12,2001.08,2001.05,2001.03,2001.04,2001.08,2001.18,1999.98,2001.11,2000.94,2000.84,2000.81,2000.77,2000.75,2000.72,2000.69,2000.67,2000.65,2000.63,2000.61,2000.59,2000.58,2000.58,2000.57,2000.57,2000.65,2001.14,2000.54,2000.49,2000.48,2000.47,2000.46,2000.42,2000.4,2000.39,2000.38,2000.37,2000.36,2000.35,2000.34,2000.33,2000.32,2000.35,1998.23,2000.36,2000.31,2000.37,2000.44,2000.31,2000.27,2000.26,2000.25,2000.25,2000.24,2000.23,2000.23,2000.22,2000.22,2000.22,2000.21,2000.21,2000.21,2000.27,2000.27,2000.21,2000.2,2000.19,2000.2,2000.2,2000.21,2000.28,2000.87,2000.67,2000.25,2000.22,2000.22,2000.24,2000.27,2000.33,2000.49,2000.46,2001.27,2002.46,2005.4,2007.79,2007.97,2003.83,2001.78,2000.93,2000.57,2000.4,2000.32,2000.27,2000.24,2000.22,2000.21,2000.21,2000.29,2000.19,2000.16,2000.16,2000.16,2000.15,2000.15,2000.15,2000.14,2000.12,2000.12,2000.15,2001.46,2000.12,2000.1,2000.09,2000.09,2000.09,2000.09,2000.09,2000.09,2000.08,2000.08,2000.08,2000.08
2000.09,2000.09,2000.1,2000.11,2000.15,2000.19,2000.13,2000.1,2000.1,2000.09,2000.09,2000.09,2000.1,2000.09,2000.09,2000.09,2000.09,2000.1,2000.11,2000.11,2000.12,2000.12,2000.12,2000.13,2000.72,2000.78,2000.15,2000.14,2000.15,2000.15,2000.15,2000.15,2000.15,2000.16,2000.17,2000.19,2000.24,2000.4,2000.32,2000.21,2000.19,2000.2,2000.2,2000.22,2000.22,2000.22,2000.23,2000.24,2000.26,2000.29,2000.4,2001.02,1998.01,1994.65,2002.3,2000.65,2000.39,2000.36,2000.48,2000.51,2000.38,2000.42,2000.08,2002.32,2000.43,2000.54,2000.74,2000.46,2000.49,2000.47,2000.46,2000.46,2000.47,2000.48,2000.5,2000.61,2002.15,1996.24,2001.4,2000.62,2000.56,2000.54,2000.53,2000.53,2000.55,2000.96,2000.56,2000.56,2000.56,2000.59,1998.75,2000.63,2000.6,2000.61,2000.63,2000.64,2000.66,2000.67,2000.69,2000.71,2000.73,2000.79,2001.24,1999.55,2000.89,2000.83,2000.88,2000.93,2000.92,2001.59,2001.12,2000.99,2001.02,2001.07,2001.1,2001.15,2001.19,2001.24,2001.29,2001.34,2001.39,2001.44,2001.51,2001.58,2001.69,2002.94,2001.86,2001.87,2001.95,2002.05,2002.13,2002.22,2002.33,2002.48,2001.51,2002.94,2002.88,2003.08,2004,2001.56,2006.94,2003.98,2001.01,2002.36,2004.25,2004.44,2004.7,2004.98,2005.38,2005.51,2005.81,2006.14,2006.77,2007.24,2007.26,2007.66,2008.09,2008.57,2009.08,2009.59,2010.17,2010.77,2011.41,2012.12,2012.9,2013.64,2014.32,2015.72,2013.08,2016.63,2017.37,2018.22,2019.06,2019.92,2020.77,2021.6,2022.4,2023.2,2023.98,2024.7,2025.34,2025.92,2026.4,2026.83,2027.18,2027.42,2027.55,2027.62,2027.54,2027.32,2027.31,2026.85,2026.17,2025.63,2025.02,2024.34,2023.59,2022.78,2022,2021.18,2020.32,2019.48,2018.67,2017.86,2017.14,2016.12,2015.29,2014.51,2013.73,2013.04,2012.35,2011.74,2011.61,2010.48,2009.86,2009.34,2008.95,2008,2007.72,2007.59,2007.09,2006.66,2006.29,2005.97,2005.7,2005.36,2005.05,2004.78,2004.52,2004.28,2004.07,2003.86,2003.67,2003.49,2003.33,2003.17,2003.03,2002.94,2002.91,2002.68,2002.56,2002.45,2002.35,2002.25,2002.16,2002.06,2001.96,2001.86,2001.77,2001.69,2001.6,2001.53,2001.46,2001.4,2001.34,2001.29,2001.23,2001.21,2001.17,2001.1,2001.07,2001.07,2001.12,2001.37,2002.12,2002.77,2001.9,2001.18,2000.91,2000.81,2000.77,2000.81,2000.84,2000.7,2000.65,2000.62,2000.6,2000.58,2000.56,2000.55,2000.53,2000.52,2000.52,2000.55,2000.68,2000.49,2000.46,2000.45,2000.44,2000.42,2000.41,2000.39,2000.38,2000.37,2000.36,2000.36,2000.35,2000.34,2000.33,2000.33,2000.43,2000.44,2000.32,2000.33,2001.09,1997.59,2000.48,2000.28,2000.28,2000.28,2000.25,2000.24,2000.24,2000.23,2000.22,2000.21,2000.21,2000.21,2000.2,2000.21,2001.01,2000.64,2000.2,2000.19,2000.2,2000.2,2000.2,2000.2,2000.28,2001.1,2001.23,2000.28,2000.21,2000.21,2000.23,2000.25,2000.3,2000.41,2001.11,2000.8,2001.17,2001.74,2002.18,2002.05,2001.84,2002.01,2000.67,2000.48,2000.38,2000.32,2000.28,2000.26,2000.24,2000.22,2000.22,1999.82,2000.2,2000.17,2000.25,2000.81,2000.2,2000.23,2000.23,2000.19,2000.15,2000.12,2000.11,2000.11,2000.1,2000.09,2000.09,2000.09,2000.1,2000.11,2000.11,2000.11,2000.1,2000.08,2000.08,2000.08
2000.09,2000.1,2000.11,2000.13,2000.15,2000.15,2000.13,2000.11,2000.1,2000.1,2000.09,2000.09,2000.09,2000.09,2000.09,2000.09,2000.09,2000.1,2000.11,2000.11,2000.12,2000.12,2000.12,2000.13,2000.17,2000.18,2000.14,2000.14,2000.49,2000.32,2000.18,2000.16,2000.16,2000.16,2000.17,2001.14,2000.61,1997.59,2001.53,2000.25,2000.2,2000.2,2000.2,2000.21,2000.22,2000.23,2000.23,2000.24,2000.26,2000.29,2000.39,2000.9,1999.47,1996.02,2004.03,2000.64,2000.4,2000.39,2000.31,1999.46,2000.53,2000.43,2001.1,2000.82,2000.44,2000.44,2000.47,2000.66,2001.05,2000.69,2000.49,2000.48,2000.49,2000.51,2000.53,2000.58,2000.86,2001.36,2000.75,2000.58,2000.55,2000.55,2000.55,2000.55,2000.56,2000.82,2000.57,2000.57,2000.58,2000.59,2000.62,2000.61,2000.62,2000.65,2000.66,2000.66,2000.67,2000.68,2000.69,2000.71,2000.73,2000.77,2000.84,2000.81,2000.82,2000.85,2001.4,1999.54,2001.02,2001.03,2000.99,2001.01,2001.04,2001.08,2001.12,2001.16,2001.21,2001.26,2001.31,2001.36,2001.41,2001.47,2001.54,2001.62,2002.29,2000.19,2002,2001.93,2002,2002.08,2002.17,2002.27,2002.39,2002.53,2002.83,2003.06,2000.14,2003.14,2003.38,2003.71,2003.77,2003.86,2004.14,2004.21,2004.39,2004.64,2005.65,2005.34,2003.54,2005.81,2006.1,2006.45,2007.13,2007.64,2007.67,2008.11,2008.61,2009.13,2009.66,2010.27,2010.9,2011.54,2012.27,2013.02,2013.79,2014.62,2015.47,2016.38,2017.38,2018.2,2019.1,2020.1,2021.93,2021.52,2023.11,2024.12,2025.1,2026.03,2026.95,2027.83,2028.63,2029.34,2029.94,2030.44,2030.84,2031.14,2031.31,2031.34,2031.24,2031.02,2031.13,2030.56,2029.67,2029,2028.25,2027.4,2026.48,2025.57,2024.62,2023.61,2022.58,2022.19,2020.94,2019.74,2018.61,2017.65,2016.7,2015.81,2014.97,2014.14,2013.37,2012.77,2013.25,2011.28,2010.58,2009.96,2009.42,2009.01,2008.49,2007.91,2007.45,2007.05,2006.67,2006.27,2005.93,2005.7,2005.36,2005,2004.72,2004.46,2004.23,2004.02,2003.81,2003.62,2003.45,2003.29,2003.15,2003.02,2002.9,2002.79,2002.7,2002.61,2002.51,2002.4,2002.3,2002.21,2002.12,2002,2001.86,2001.75,2001.65,2001.57,2001.49,2001.42,2001.36,2001.31,2001.26,2001.38,2001.4,2001.12,2001.1,2001.11,2001.25,2002.11,2000.61,1996.71,2002.03,2001.7,2001,2000.84,2000.81,2002.82,1998.5,2000.78,2000.66,2000.63,2000.61,2000.59,2000.57,2000.55,2000.53,2000.52,2000.51,2000.5,2000.49,2000.47,2000.46,2000.44,2000.43,2000.42,2000.41,2000.4,2000.39,2000.38,2000.38,2000.37,2000.37,2000.36,2000.35,2000.35,2001.07,2000.98,2000.32,2000.32,2000.6,2002.34,2000.39,2000.29,2001.24,2002.04,2000.25,2000.35,2000.58,2000.24,2000.22,2000.22,2000.21,2000.21,2000.21,2000.21,2000.22,2000.21,2000.19,2000.19,2000.23,2000.34,2000.23,2000.2,2000.21,2000.59,2000.57,2000.22,2000.2,2000.21,2000.22,2000.24,2000.28,2000.33,2000.41,2000.52,2000.67,2000.84,2000.95,2000.94,2000.82,2000.68,2000.53,2000.43,2000.37,2000.33,2000.3,2000.31,2000.37,2000.33,2000.25,2000.28,2000.19,2000.18,2000.24,2000.49,2000.4,2000.69,2000.89,2000.48,2000.22,2000.14,2000.11,2000.1,2000.1,2000.09,2000.09,2000.1,2000.12,2000.18,2000.27,2000.24,2000.15,2000.1,2000.09,2000.08
