2000.84,2000.9,2000.96,2001.03,2001.11,2001.2,2001.29,2001.39,2001.5,2001.62,2001.77,2001.92,2002.11,2002.35,2002.68,2003.2,2004.15,2003.32,2002.74,2002.58,2002.81,2003.46,2001.83,2001.11,2000.9,2001.03,2001.45,2002.16,2003.2,2004.42,2003.37,2002.87,2002.55,2002.31,2002.13,2001.96,2001.82,2001.69,2001.57,2001.46,2001.36,2001.27,2001.18,2001.11,2001.04,2000.98,2000.92,2000.87,2000.83,2000.79,2000.75,2000.72,2000.69,2000.66,2000.63,2000.62,2000.61,2000.62,2000.66,2000.77,2001.04,2001.87,2000.43,1999.35,1998.66,1998.3,1998.23,1998.47,1999.02,1999.93,2001.28,2001.16,2000.72,2000.54,2000.45,2000.41,2000.4,2000.39,2000.41,2000.43,2000.48,2000.54,2000.64,2000.77,2000.98,2001.31,2001.87,2002.93,2001.7,2000.33,1999.23,1998.34,1997.66,1997.16,1996.83,1996.66,1996.66,1996.82,1997.14,1997.64,1998.32,1999.2,2000.31,2001.69,2003.17,2002.14,2001.71,2001.68,2002.24,2000.79,1999.67,1998.92,1998.47,1998.32,1998.43,1998.83,1999.53,2000.59,2002.19,2001.42,2001.54,2001.06,1999.93,1999.28,1999.03,1999.15,1999.65,2000.59,2001.32,2000.72,2000.5,2000.4,2000.35,2000.33,2000.32,2000.32,2000.32,2000.33,2000.34,2000.35,2000.37,2000.39,2000.42,2000.44,2000.47,2000.51,2000.55,2000.6,2000.65,2000.71,2000.78,2000.87,2000.97,2001.08,2001.22,2001.38,2001.57,2001.8,2002.09,2002.43,2002.87,2003.42,2004.13,2005.09,2006.13,2004.64,2003.29,2002.08,2001,2000.04,1999.18,1998.42,1997.77,1997.2,1996.73,1996.35,1996.05,1995.83,1995.7,1995.65,1995.68,1995.8,1995.99,1996.28,1996.64,1997.09,1997.64,1998.27,1999.01,1999.84,2000.78,2001.84,2003.02,2004.33,2005.79,2005.35,2004.33,2003.58,2003,2002.54,2002.17,2001.88,2001.64,2001.43,2001.27,2001.13,2001.01,2000.9,2000.82,2000.74,2000.68,2000.62,2000.57,2000.53,2000.49,2000.46,2000.43,2000.41,2000.38,2000.36,2000.34,2000.33,2000.32,2000.3,2000.29,2000.28,2000.27,2000.26,2000.25,2000.24,2000.24,2000.23,2000.22,2000.21,2000.2,2000.2,2000.19,2000.19,2000.18,2000.18,2000.17,2000.17,2000.17,2000.17,2000.17,2000.18,2000.18,2000.19,2000.22,2000.25,2000.31,2000.44,2000.73,2001.62,2000.1,1999.05,1998.39,1998.07,1998.06,1998.36,1998.99,2000.01,2001.55,2000.75,2000.44,2000.31,2000.24,2000.21,2000.18,2000.17,2000.16,2000.16,2000.16,2000.16,2000.16,2000.17,2000.17,2000.18,2000.19,2000.21,2000.23,2000.25,2000.29,2000.36,2000.45,2000.6,2000.88,2001.41,2001.77,2000.46,1999.5,1998.85,1998.46,1998.31,1998.41,1998.75,1999.34,2000.23,2001.46,2001.57,2000.95,2000.65,2000.48,2000.37,2000.31,2000.27,2000.25,2000.23,2000.22,2000.21,2000.21,2000.21,2000.21,2000.22,2000.22,2000.23,2000.23,2000.24,2000.25,2000.26,2000.27,2000.28,2000.3,2000.31,2000.34,2000.37,2000.42,2000.48,2000.57,2000.71,2000.9,2001.19,2001.65,2002.42,2002.25,2001.08,2000.17,1999.48,1998.99,1998.69,1998.58,1998.64,1998.89,1999.32,1999.95,2000.8,2001.89,2002.7,2001.8,2001.27,2000.93,2000.71,2000.56,2000.45,2000.37,2000.31,2000.27,2000.23,2000.21,2000.19,2000.17,2000.16,2000.15,2000.14,2000.13,2000.13,2000.12,2000.12,2000.11,2000.11,2000.11,2000.11,2000.11,2000.11,2000.11,2000.12,2000.13,2000.14
2000.89,2000.96,2001.04,2001.12,2001.21,2001.31,2001.42,2001.54,2001.67,2001.81,2001.97,2002.15,2002.36,2002.61,2002.92,2003.36,2003.99,2005.06,2005.42,2004.12,2003.15,2002.14,2001.43,2001.05,2000.95,2001.11,2001.52,2002.2,2003.18,2004.55,2003.96,2003.32,2002.92,2002.64,2002.42,2002.22,2002.05,2001.89,2001.75,2001.62,2001.51,2001.4,2001.3,2001.21,2001.13,2001.06,2001,2000.95,2000.9,2000.86,2000.82,2000.79,2000.75,2000.72,2000.69,2000.66,2000.65,2000.65,2000.69,2000.8,2001.08,2001.98,2000.35,1999.27,1998.58,1998.22,1998.16,1998.39,1998.94,1999.84,2001.19,2001.2,2000.73,2000.55,2000.46,2000.41,2000.39,2000.39,2000.4,2000.43,2000.47,2000.53,2000.61,2000.73,2000.92,2001.19,2001.65,2002.44,2002.36,2000.95,1999.81,1998.9,1998.21,1997.69,1997.36,1997.19,1997.18,1997.34,1997.67,1998.18,1998.88,1999.78,2000.92,2002.33,2002.64,2001.88,2001.53,2001.47,2001.77,2001.55,2000.36,1999.57,1999.11,1998.94,1999.06,1999.48,2000.22,2001.34,2001.67,2001.35,2001.86,2000.43,1999.37,1998.76,1998.52,1998.64,1999.12,2000.01,2001.42,2000.83,2000.53,2000.41,2000.36,2000.33,2000.32,2000.32,2000.32,2000.32,2000.34,2000.35,2000.37,2000.39,2000.41,2000.43,2000.46,2000.5,2000.54,2000.58,2000.63,2000.69,2000.76,2000.84,2000.93,2001.03,2001.16,2001.3,2001.48,2001.69,2001.94,2002.24,2002.62,2003.09,2003.68,2004.45,2005.46,2005.71,2004.33,2003.09,2001.98,2001,2000.12,1999.35,1998.68,1998.11,1997.62,1997.23,1996.93,1996.71,1996.57,1996.52,1996.56,1996.67,1996.87,1997.16,1997.53,1997.99,1998.55,1999.2,1999.94,2000.8,2001.76,2002.84,2004.05,2005.4,2005.75,2004.66,2003.85,2003.23,2002.74,2002.34,2002.02,2001.76,2001.54,2001.36,2001.21,2001.08,2000.97,2000.87,2000.79,2000.72,2000.66,2000.61,2000.56,2000.52,2000.48,2000.45,2000.42,2000.4,2000.38,2000.36,2000.34,2000.33,2000.32,2000.3,2000.29,2000.29,2000.28,2000.27,2000.26,2000.25,2000.24,2000.23,2000.22,2000.21,2000.21,2000.2,2000.19,2000.18,2000.18,2000.18,2000.17,2000.17,2000.17,2000.17,2000.17,2000.17,2000.18,2000.19,2000.21,2000.24,2000.3,2000.42,2000.68,2001.42,2000.32,1999.25,1998.58,1998.26,1998.24,1998.55,1999.19,2000.23,2001.5,2000.7,2000.43,2000.3,2000.24,2000.2,2000.18,2000.17,2000.16,2000.16,2000.16,2000.16,2000.16,2000.16,2000.17,2000.17,2000.18,2000.2,2000.22,2000.24,2000.27,2000.33,2000.4,2000.52,2000.72,2001.06,2001.72,2001.45,2000.43,1999.74,1999.32,1999.17,1999.27,1999.63,2000.26,2001.21,2001.92,2001.16,2000.77,2000.56,2000.43,2000.35,2000.29,2000.26,2000.24,2000.22,2000.21,2000.21,2000.21,2000.2,2000.21,2000.21,2000.21,2000.21,2000.22,2000.23,2000.23,2000.25,2000.26,2000.27,2000.28,2000.31,2000.34,2000.37,2000.43,2000.51,2000.62,2000.78,2001.03,2001.42,2002.08,2002.62,2001.23,2000.11,1999.24,1998.58,1998.11,1997.82,1997.71,1997.78,1998.01,1998.43,1999.03,1999.84,2000.88,2002.19,2002.32,2001.54,2001.09,2000.8,2000.61,2000.49,2000.39,2000.33,2000.28,2000.24,2000.21,2000.19,2000.17,2000.16,2000.15,2000.14,2000.13,2000.12,2000.12,2000.12,2000.11,2000.11,2000.11,2000.11,2000.11,2000.11,2000.11,2000.11,2000.12,2000.13
2000.96,2001.03,2001.12,2001.21,2001.32,2001.43,2001.56,2001.7,2001.85,2002.03,2002.21,2002.43,2002.66,2002.94,2003.27,2003.68,2004.26,2005.23,2005.03,2003.85,2002.92,2002.22,2001.73,2001.47,2001.43,2001.61,2002.01,2002.66,2003.59,2004.9,2004.56,2003.82,2003.37,2003.04,2002.77,2002.53,2002.33,2002.14,2001.97,2001.81,2001.67,2001.54,2001.43,2001.33,2001.24,2001.16,2001.09,2001.04,2000.99,2000.95,2000.92,2000.88,2000.84,2000.8,2000.76,2000.73,2000.7,2000.69,2000.72,2000.81,2001.05,2001.75,2000.61,1999.51,1998.81,1998.44,1998.38,1998.62,1999.18,2000.09,2001.47,2001.1,2000.7,2000.53,2000.45,2000.41,2000.39,2000.39,2000.4,2000.42,2000.45,2000.5,2000.58,2000.68,2000.84,2001.07,2001.42,2002,2003.04,2001.78,2000.6,1999.66,1998.94,1998.41,1998.06,1997.89,1997.88,1998.05,1998.39,1998.91,1999.63,2000.56,2001.74,2003.21,2002.15,2001.61,2001.34,2001.25,2001.38,2001.83,2001.43,2000.57,2000.07,1999.9,2000.03,2000.47,2001.27,2001.82,2001.28,2001.23,2001.84,2000.22,1999.19,1998.59,1998.36,1998.48,1998.95,1999.83,2001.22,2000.88,2000.55,2000.42,2000.36,2000.33,2000.31,2000.31,2000.31,2000.32,2000.33,2000.34,2000.36,2000.38,2000.4,2000.42,2000.45,2000.48,2000.52,2000.56,2000.61,2000.67,2000.73,2000.8,2000.89,2000.99,2001.1,2001.23,2001.39,2001.58,2001.8,2002.07,2002.39,2002.79,2003.28,2003.89,2004.68,2005.72,2005.5,2004.22,2003.08,2002.07,2001.17,2000.38,1999.7,1999.11,1998.62,1998.22,1997.91,1997.68,1997.55,1997.5,1997.53,1997.65,1997.85,1998.14,1998.53,1999,1999.56,2000.23,2000.99,2001.87,2002.85,2003.96,2005.21,2005.99,2004.89,2004.07,2003.42,2002.91,2002.5,2002.16,2001.88,2001.65,2001.45,2001.29,2001.15,2001.03,2000.93,2000.84,2000.76,2000.7,2000.64,2000.59,2000.55,2000.51,2000.47,2000.44,2000.42,2000.39,2000.37,2000.35,2000.34,2000.33,2000.32,2000.31,2000.3,2000.29,2000.29,2000.28,2000.27,2000.26,2000.25,2000.24,2000.23,2000.22,2000.21,2000.2,2000.19,2000.19,2000.18,2000.17,2000.17,2000.17,2000.17,2000.17,2000.17,2000.17,2000.18,2000.19,2000.21,2000.24,2000.29,2000.38,2000.58,2001.06,2000.93,1999.8,1999.11,1998.76,1998.75,1999.07,1999.74,2000.84,2001.1,2000.6,2000.38,2000.28,2000.23,2000.19,2000.17,2000.16,2000.16,2000.15,2000.15,2000.15,2000.15,2000.16,2000.16,2000.17,2000.18,2000.19,2000.2,2000.23,2000.25,2000.3,2000.36,2000.45,2000.58,2000.8,2001.14,2001.73,2001.72,2000.96,2000.51,2000.35,2000.46,2000.84,2001.53,2001.89,2001.24,2000.86,2000.62,2000.47,2000.38,2000.32,2000.28,2000.25,2000.23,2000.22,2000.21,2000.2,2000.2,2000.2,2000.2,2000.2,2000.2,2000.21,2000.21,2000.22,2000.22,2000.23,2000.25,2000.26,2000.28,2000.3,2000.33,2000.38,2000.44,2000.53,2000.66,2000.85,2001.16,2001.66,2002.6,2001.79,2000.45,1999.37,1998.53,1997.89,1997.43,1997.16,1997.05,1997.11,1997.34,1997.74,1998.33,1999.11,2000.12,2001.38,2002.94,2001.84,2001.24,2000.89,2000.67,2000.52,2000.41,2000.34,2000.29,2000.25,2000.22,2000.19,2000.17,2000.16,2000.15,2000.14,2000.13,2000.12,2000.12,2000.11,2000.11,2000.11,2000.11,2000.1,2000.1,2000.1,2000.1,2000.11,2000.11,2000.12
2001.03,2001.11,2001.21,2001.32,2001.44,2001.57,2001.73,2001.89,2002.08,2002.28,2002.5,2002.76,2003.04,2003.35,2003.72,2004.16,2004.76,2005.69,2005.64,2004.48,2003.63,2003.03,2002.64,2002.44,2002.42,2002.6,2002.98,2003.58,2004.47,2005.73,2005.2,2004.42,2003.91,2003.52,2003.2,2002.91,2002.66,2002.42,2002.21,2002.03,2001.86,2001.71,2001.57,2001.46,2001.36,2001.27,2001.2,2001.15,2001.11,2001.07,2001.05,2001.02,2000.98,2000.93,2000.87,2000.81,2000.76,2000.74,2000.74,2000.8,2000.96,2001.41,2001.26,2000.1,1999.36,1998.98,1998.91,1999.16,1999.74,2000.71,2001.68,2000.94,2000.65,2000.51,2000.44,2000.4,2000.38,2000.38,2000.39,2000.41,2000.44,2000.48,2000.54,2000.63,2000.76,2000.94,2001.21,2001.62,2002.27,2002.86,2001.62,2000.63,1999.88,1999.33,1998.96,1998.78,1998.78,1998.95,1999.3,1999.85,2000.59,2001.57,2002.81,2002.39,2001.74,2001.36,2001.15,2001.06,2001.09,2001.26,2001.61,2002.02,2001.46,2001.26,2001.41,2001.91,2001.59,2001.18,2000.99,2001.06,2001.68,2000.4,1999.36,1998.76,1998.54,1998.66,1999.14,2000.04,2001.46,2000.82,2000.52,2000.41,2000.35,2000.32,2000.31,2000.31,2000.31,2000.32,2000.32,2000.34,2000.35,2000.37,2000.39,2000.41,2000.44,2000.47,2000.51,2000.55,2000.59,2000.65,2000.71,2000.77,2000.85,2000.94,2001.05,2001.17,2001.31,2001.47,2001.67,2001.9,2002.18,2002.51,2002.92,2003.42,2004.04,2004.8,2005.81,2005.49,2004.31,2003.27,2002.35,2001.54,2000.83,2000.23,1999.73,1999.32,1999,1998.77,1998.63,1998.58,1998.61,1998.73,1998.94,1999.24,1999.63,2000.12,2000.7,2001.38,2002.16,2003.06,2004.08,2005.22,2006.07,2005.02,2004.2,2003.56,2003.04,2002.62,2002.27,2001.99,2001.75,2001.54,2001.37,2001.22,2001.09,2000.99,2000.89,2000.81,2000.74,2000.67,2000.62,2000.57,2000.53,2000.49,2000.46,2000.43,2000.41,2000.39,2000.37,2000.35,2000.34,2000.33,2000.32,2000.31,2000.31,2000.31,2000.3,2000.3,2000.29,2000.28,2000.26,2000.25,2000.24,2000.22,2000.21,2000.2,2000.19,2000.19,2000.18,2000.17,2000.17,2000.17,2000.16,2000.16,2000.16,2000.17,2000.17,2000.18,2000.2,2000.22,2000.26,2000.34,2000.47,2000.74,2001.36,2000.77,2000.01,1999.64,1999.63,1999.97,2000.7,2001.42,2000.76,2000.48,2000.33,2000.26,2000.21,2000.19,2000.17,2000.16,2000.15,2000.15,2000.15,2000.15,2000.15,2000.15,2000.15,2000.16,2000.17,2000.18,2000.19,2000.21,2000.23,2000.27,2000.31,2000.38,2000.47,2000.61,2000.8,2001.07,2001.43,2001.86,2002.11,2001.93,2002.05,2001.95,2001.51,2001.13,2000.85,2000.64,2000.5,2000.4,2000.34,2000.29,2000.26,2000.24,2000.22,2000.21,2000.21,2000.2,2000.2,2000.2,2000.2,2000.2,2000.2,2000.2,2000.21,2000.21,2000.22,2000.23,2000.24,2000.25,2000.27,2000.3,2000.33,2000.38,2000.45,2000.55,2000.69,2000.91,2001.27,2001.9,2002.8,2001.18,1999.88,1998.84,1998.01,1997.39,1996.94,1996.67,1996.56,1996.62,1996.85,1997.24,1997.81,1998.58,1999.56,2000.79,2002.3,2002.13,2001.39,2000.97,2000.71,2000.55,2000.43,2000.35,2000.29,2000.25,2000.22,2000.19,2000.17,2000.16,2000.15,2000.14,2000.13,2000.12,2000.12,2000.11,2000.11,2000.11,2000.1,2000.1,2000.1,2000.1,2000.1,2000.1,2000.11,2000.11
2001.1,2001.2,2001.31,2001.44,2001.58,2001.74,2001.92,2002.11,2002.33,2002.58,2002.85,2003.16,2003.5,2003.88,2004.31,2004.82,2005.45,2006.36,2006.96,2005.86,2005.09,2004.57,2004.24,2004.08,2004.07,2004.23,2004.57,2005.11,2005.94,2007.13,2005.97,2005.16,2004.59,2004.12,2003.72,2003.37,2003.05,2002.76,2002.5,2002.28,2002.07,2001.89,2001.74,2001.6,2001.49,2001.4,2001.33,2001.28,2001.26,2001.26,2001.27,2001.27,2001.23,2001.16,2001.06,2000.95,2000.86,2000.8,2000.77,2000.79,2000.88,2001.11,2001.69,2001.08,2000.28,1999.87,1999.8,2000.07,2000.69,2001.75,2001.15,2000.77,2000.58,2000.48,2000.42,2000.39,2000.37,2000.37,2000.38,2000.39,2000.42,2000.45,2000.51,2000.58,2000.68,2000.83,2001.03,2001.31,2001.73,2002.36,2002.9,2001.85,2001.05,2000.47,2000.09,1999.9,1999.89,2000.07,2000.45,2001.02,2001.81,2002.84,2002.45,2001.81,2001.4,2001.14,2000.98,2000.89,2000.88,2000.93,2001.04,2001.2,2001.35,2001.41,2001.34,2001.17,2000.98,2000.84,2000.78,2000.86,2001.24,2001,1999.92,1999.3,1999.07,1999.2,1999.71,2000.66,2001.25,2000.69,2000.48,2000.38,2000.34,2000.32,2000.3,2000.3,2000.3,2000.31,2000.32,2000.33,2000.35,2000.36,2000.38,2000.41,2000.43,2000.46,2000.49,2000.53,2000.57,2000.62,2000.68,2000.74,2000.81,2000.9,2000.99,2001.1,2001.23,2001.38,2001.55,2001.75,2001.99,2002.27,2002.6,2003.01,2003.5,2004.09,2004.81,2005.73,2005.69,2004.61,2003.65,2002.82,2002.09,2001.47,2000.96,2000.53,2000.21,1999.97,1999.83,1999.77,1999.81,1999.93,2000.15,2000.46,2000.86,2001.35,2001.95,2002.65,2003.46,2004.39,2005.44,2005.97,2005.01,2004.25,2003.63,2003.13,2002.72,2002.37,2002.08,2001.84,2001.63,2001.45,2001.29,2001.16,2001.05,2000.94,2000.86,2000.78,2000.71,2000.65,2000.6,2000.56,2000.52,2000.48,2000.45,2000.42,2000.4,2000.38,2000.36,2000.35,2000.34,2000.33,2000.33,2000.33,2000.33,2000.33,2000.33,2000.33,2000.32,2000.31,2000.29,2000.27,2000.25,2000.24,2000.22,2000.21,2000.2,2000.19,2000.18,2000.17,2000.17,2000.16,2000.16,2000.16,2000.16,2000.17,2000.17,2000.18,2000.19,2000.21,2000.24,2000.29,2000.38,2000.52,2000.78,2001.22,2001.39,2000.97,2000.96,2001.35,2001.25,2000.79,2000.53,2000.38,2000.28,2000.23,2000.2,2000.18,2000.16,2000.15,2000.15,2000.14,2000.14,2000.14,2000.14,2000.15,2000.15,2000.15,2000.16,2000.17,2000.18,2000.2,2000.22,2000.24,2000.28,2000.32,2000.39,2000.47,2000.58,2000.72,2000.88,2001.04,2001.17,2001.23,2001.19,2001.07,2000.91,2000.75,2000.61,2000.5,2000.41,2000.35,2000.3,2000.27,2000.25,2000.23,2000.22,2000.21,2000.21,2000.21,2000.21,2000.2,2000.2,2000.2,2000.2,2000.2,2000.2,2000.21,2000.21,2000.22,2000.23,2000.25,2000.27,2000.29,2000.33,2000.38,2000.45,2000.56,2000.72,2000.96,2001.36,2002.09,2002.38,2000.8,1999.52,1998.49,1997.68,1997.06,1996.62,1996.35,1996.25,1996.31,1996.53,1996.92,1997.48,1998.24,1999.21,2000.41,2001.9,2002.37,2001.49,2001.03,2000.75,2000.57,2000.44,2000.36,2000.3,2000.25,2000.22,2000.19,2000.17,2000.16,2000.15,2000.14,2000.13,2000.12,2000.11,2000.11,2000.11,2000.1,2000.1,2000.1,2000.1,2000.1,2000.1,2000.1,2000.1,2000.11
2001.18,2001.3,2001.43,2001.57,2001.74,2001.92,2002.13,2002.37,2002.64,2002.94,2003.27,2003.65,2004.08,2004.57,2005.11,2005.73,2006.45,2007.39,2006.73,2006.27,2005.9,2005.63,2005.44,2005.36,2005.36,2005.46,2005.66,2005.95,2006.34,2008.27,2007.03,2006.17,2005.47,2004.89,2004.38,2003.93,2003.53,2003.17,2002.85,2002.57,2002.32,2002.11,2001.92,2001.77,2001.64,2001.54,2001.48,2001.45,2001.49,2001.57,2001.7,2001.79,2001.79,2001.65,2001.42,2001.19,2001.01,2000.89,2000.81,2000.78,2000.81,2000.92,2001.14,2001.55,2001.67,2001.21,2001.13,2001.43,2001.72,2001.17,2000.83,2000.63,2000.52,2000.44,2000.4,2000.38,2000.37,2000.36,2000.37,2000.38,2000.4,2000.43,2000.48,2000.54,2000.62,2000.73,2000.87,2001.07,2001.35,2001.72,2002.23,2002.92,2002.51,2001.88,2001.47,2001.27,2001.27,2001.46,2001.85,2002.47,2002.99,2002.29,2001.77,2001.4,2001.14,2000.95,2000.83,2000.76,2000.73,2000.73,2000.76,2000.81,2000.85,2000.86,2000.83,2000.77,2000.7,2000.64,2000.63,2000.68,2000.88,2001.39,2000.93,2000.25,2000,2000.15,2000.71,2001.5,2000.84,2000.56,2000.43,2000.36,2000.32,2000.3,2000.3,2000.3,2000.3,2000.3,2000.31,2000.32,2000.34,2000.35,2000.37,2000.4,2000.42,2000.45,2000.48,2000.52,2000.56,2000.6,2000.65,2000.71,2000.78,2000.86,2000.94,2001.04,2001.16,2001.28,2001.43,2001.61,2001.82,2002.05,2002.33,2002.66,2003.04,2003.5,2004.05,2004.7,2005.49,2006.09,2005.1,2004.24,2003.49,2002.85,2002.31,2001.88,2001.54,2001.3,2001.15,2001.09,2001.13,2001.26,2001.48,2001.8,2002.21,2002.72,2003.34,2004.07,2004.91,2005.87,2005.7,2004.87,2004.2,2003.63,2003.16,2002.77,2002.44,2002.15,2001.91,2001.7,2001.52,2001.37,2001.23,2001.11,2001,2000.91,2000.82,2000.75,2000.69,2000.63,2000.58,2000.54,2000.5,2000.47,2000.44,2000.42,2000.39,2000.37,2000.36,2000.35,2000.34,2000.34,2000.34,2000.35,2000.36,2000.38,2000.39,2000.4,2000.39,2000.37,2000.34,2000.31,2000.28,2000.25,2000.23,2000.21,2000.2,2000.19,2000.18,2000.17,2000.17,2000.16,2000.16,2000.16,2000.16,2000.16,2000.17,2000.17,2000.18,2000.19,2000.22,2000.25,2000.3,2000.38,2000.5,2000.65,2000.82,2000.95,2000.95,2000.83,2000.66,2000.5,2000.38,2000.3,2000.24,2000.21,2000.18,2000.17,2000.15,2000.15,2000.14,2000.14,2000.14,2000.14,2000.14,2000.14,2000.14,2000.15,2000.15,2000.16,2000.17,2000.19,2000.2,2000.22,2000.25,2000.28,2000.32,2000.38,2000.44,2000.51,2000.59,2000.67,2000.73,2000.75,2000.73,2000.68,2000.61,2000.53,2000.46,2000.39,2000.34,2000.3,2000.27,2000.25,2000.23,2000.22,2000.22,2000.22,2000.22,2000.22,2000.22,2000.22,2000.21,2000.21,2000.21,2000.21,2000.21,2000.21,2000.21,2000.22,2000.23,2000.24,2000.26,2000.29,2000.33,2000.38,2000.46,2000.57,2000.73,2000.98,2001.41,2002.18,2002.18,2000.62,1999.35,1998.33,1997.52,1996.91,1996.47,1996.2,1996.1,1996.16,1996.38,1996.77,1997.33,1998.08,1999.04,2000.23,2001.7,2002.51,2001.55,2001.06,2000.76,2000.57,2000.45,2000.36,2000.3,2000.25,2000.22,2000.19,2000.17,2000.16,2000.14,2000.13,2000.13,2000.12,2000.11,2000.11,2000.1,2000.1,2000.1,2000.1,2000.1,2000.09,2000.09,2000.1,2000.1,2000.1
2001.27,2001.4,2001.55,2001.72,2001.91,2002.13,2002.38,2002.67,2003,2003.37,2003.79,2004.28,2004.83,2005.47,2006.19,2007.02,2006.14,2005.5,2004.96,2004.52,2004.16,2003.9,2003.73,2003.65,2003.66,2003.76,2003.95,2004.23,2004.61,2005.08,2005.66,2006.34,2006.71,2005.92,2005.24,2004.64,2004.11,2003.65,2003.26,2002.91,2002.61,2002.35,2002.13,2001.94,2001.8,2001.7,2001.66,2001.69,2001.85,2002.2,2002.38,2001.8,2001.61,2001.78,2002.35,2001.68,2001.27,2001.02,2000.87,2000.79,2000.77,2000.8,2000.87,2001,2001.16,2001.28,2001.3,2001.17,2000.98,2000.79,2000.64,2000.54,2000.46,2000.42,2000.38,2000.37,2000.35,2000.35,2000.35,2000.37,2000.38,2000.41,2000.44,2000.49,2000.56,2000.64,2000.75,2000.88,2001.07,2001.29,2001.58,2001.92,2002.32,2002.73,2003.09,2002.96,2002.95,2003.11,2002.76,2002.35,2001.96,2001.62,2001.33,2001.1,2000.93,2000.8,2000.71,2000.65,2000.62,2000.6,2000.6,2000.61,2000.62,2000.61,2000.59,2000.57,2000.54,2000.52,2000.51,2000.55,2000.64,2000.82,2001.13,2001.54,2001.48,2001.6,2001.18,2000.82,2000.59,2000.45,2000.38,2000.33,2000.31,2000.29,2000.29,2000.29,2000.29,2000.3,2000.31,2000.32,2000.33,2000.35,2000.36,2000.39,2000.41,2000.44,2000.47,2000.5,2000.54,2000.58,2000.63,2000.68,2000.75,2000.82,2000.9,2000.99,2001.09,2001.2,2001.33,2001.48,2001.66,2001.86,2002.09,2002.36,2002.66,2003.02,2003.43,2003.92,2004.48,2005.13,2005.89,2005.81,2005.04,2004.37,2003.81,2003.36,2003.01,2002.76,2002.61,2002.55,2002.59,2002.72,2002.95,2003.28,2003.71,2004.24,2004.88,2005.64,2006.07,2005.29,2004.63,2004.05,2003.56,2003.14,2002.78,2002.47,2002.2,2001.97,2001.77,2001.6,2001.44,2001.3,2001.17,2001.06,2000.96,2000.87,2000.8,2000.73,2000.67,2000.61,2000.57,2000.53,2000.49,2000.46,2000.43,2000.41,2000.39,2000.37,2000.36,2000.35,2000.35,2000.35,2000.36,2000.39,2000.42,2000.47,2000.52,2000.55,2000.54,2000.5,2000.44,2000.38,2000.32,2000.28,2000.25,2000.22,2000.21,2000.19,2000.18,2000.17,2000.17,2000.16,2000.16,2000.16,2000.16,2000.16,2000.16,2000.16,2000.17,2000.18,2000.2,2000.22,2000.25,2000.29,2000.35,2000.41,2000.47,2000.51,2000.51,2000.47,2000.41,2000.34,2000.29,2000.24,2000.21,2000.18,2000.17,2000.15,2000.15,2000.14,2000.14,2000.14,2000.14,2000.14,2000.14,2000.14,2000.14,2000.15,2000.15,2000.16,2000.16,2000.18,2000.19,2000.2,2000.22,2000.24,2000.27,2000.31,2000.35,2000.39,2000.43,2000.47,2000.5,2000.51,2000.5,2000.48,2000.44,2000.4,2000.36,2000.32,2000.29,2000.27,2000.25,2000.23,2000.23,2000.23,2000.23,2000.23,2000.23,2000.24,2000.24,2000.24,2000.23,2000.23,2000.22,2000.22,2000.21,2000.21,2000.21,2000.22,2000.22,2000.24,2000.26,2000.29,2000.32,2000.38,2000.45,2000.56,2000.72,2000.98,2001.4,2002.17,2002.2,2000.63,1999.36,1998.34,1997.53,1996.92,1996.48,1996.22,1996.11,1996.17,1996.39,1996.78,1997.34,1998.09,1999.05,2000.25,2001.72,2002.49,2001.55,2001.05,2000.76,2000.57,2000.45,2000.36,2000.3,2000.25,2000.22,2000.19,2000.17,2000.16,2000.14,2000.13,2000.12,2000.12,2000.11,2000.11,2000.1,2000.1,2000.1,2000.09,2000.09,2000.09,2000.09,2000.09,2000.09,2000.09
2001.36,2001.51,2001.68,2001.88,2002.1,2002.37,2002.67,2003.02,2003.42,2003.89,2004.44,2005.08,2005.82,2006.7,2006.05,2005.22,2004.5,2003.88,2003.36,2002.93,2002.59,2002.34,2002.17,2002.1,2002.11,2002.21,2002.39,2002.67,2003.03,2003.49,2004.05,2004.7,2005.46,2006.33,2006.4,2005.57,2004.86,2004.26,2003.75,2003.31,2002.94,2002.63,2002.36,2002.15,2001.98,2001.88,2001.87,2002.01,2002.49,2001.95,2001.03,2000.5,2000.32,2000.46,2000.96,2001.86,2001.71,2001.2,2000.95,2000.82,2000.75,2000.73,2000.74,2000.77,2000.81,2000.83,2000.82,2000.77,2000.69,2000.61,2000.53,2000.47,2000.42,2000.39,2000.37,2000.35,2000.34,2000.34,2000.34,2000.35,2000.37,2000.39,2000.42,2000.45,2000.5,2000.56,2000.64,2000.74,2000.86,2001,2001.18,2001.37,2001.57,2001.76,2001.91,2002,2002,2001.92,2001.77,2001.59,2001.39,2001.2,2001.03,2000.88,2000.77,2000.68,2000.61,2000.56,2000.53,2000.51,2000.5,2000.49,2000.49,2000.48,2000.47,2000.45,2000.44,2000.43,2000.43,2000.45,2000.49,2000.56,2000.66,2000.75,2000.79,2000.75,2000.65,2000.54,2000.45,2000.38,2000.34,2000.31,2000.29,2000.28,2000.28,2000.28,2000.28,2000.29,2000.3,2000.31,2000.32,2000.34,2000.36,2000.38,2000.4,2000.42,2000.45,2000.48,2000.52,2000.56,2000.61,2000.66,2000.72,2000.78,2000.85,2000.93,2001.03,2001.13,2001.25,2001.38,2001.53,2001.69,2001.89,2002.1,2002.35,2002.63,2002.94,2003.31,2003.72,2004.17,2004.69,2005.25,2005.86,2006.06,2005.48,2005.01,2004.64,2004.38,2004.22,2004.16,2004.2,2004.34,2004.58,2004.92,2005.37,2005.92,2005.99,2005.38,2004.81,2004.29,2003.82,2003.41,2003.05,2002.74,2002.46,2002.22,2002.01,2001.83,2001.67,2001.52,2001.38,2001.26,2001.14,2001.03,2000.93,2000.85,2000.77,2000.71,2000.65,2000.6,2000.55,2000.51,2000.48,2000.45,2000.42,2000.4,2000.38,2000.37,2000.36,2000.35,2000.35,2000.36,2000.39,2000.45,2000.53,2000.66,2000.81,2000.94,2000.94,2000.82,2000.65,2000.5,2000.39,2000.32,2000.27,2000.23,2000.21,2000.19,2000.18,2000.17,2000.17,2000.16,2000.16,2000.15,2000.15,2000.15,2000.16,2000.16,2000.16,2000.17,2000.18,2000.2,2000.21,2000.24,2000.27,2000.29,2000.32,2000.34,2000.33,2000.32,2000.29,2000.26,2000.23,2000.2,2000.18,2000.17,2000.16,2000.15,2000.14,2000.14,2000.13,2000.13,2000.13,2000.13,2000.13,2000.14,2000.14,2000.14,2000.14,2000.15,2000.16,2000.16,2000.17,2000.19,2000.2,2000.22,2000.24,2000.26,2000.28,2000.31,2000.34,2000.36,2000.37,2000.38,2000.37,2000.36,2000.34,2000.32,2000.3,2000.28,2000.26,2000.24,2000.23,2000.23,2000.23,2000.23,2000.24,2000.26,2000.27,2000.28,2000.29,2000.29,2000.28,2000.26,2000.25,2000.23,2000.22,2000.21,2000.21,2000.22,2000.22,2000.23,2000.25,2000.28,2000.32,2000.37,2000.44,2000.55,2000.7,2000.95,2001.34,2002.05,2002.43,2000.84,1999.56,1998.53,1997.72,1997.1,1996.66,1996.39,1996.29,1996.35,1996.57,1996.96,1997.52,1998.28,1999.25,2000.46,2001.95,2002.34,2001.48,2001.01,2000.74,2000.56,2000.44,2000.35,2000.29,2000.25,2000.22,2000.19,2000.17,2000.15,2000.14,2000.13,2000.12,2000.12,2000.11,2000.11,2000.1,2000.1,2000.09,2000.09,2000.09,2000.09,2000.09,2000.09,2000.09,2000.09
2001.47,2001.64,2001.83,2002.06,2002.32,2002.63,2003,2003.42,2003.93,2004.53,2005.24,2006.12,2006.45,2005.42,2004.51,2003.71,2003.01,2002.41,2001.9,2001.49,2001.16,2000.91,2000.76,2000.69,2000.7,2000.79,2000.97,2001.24,2001.6,2002.04,2002.58,2003.21,2003.95,2004.79,2005.74,2006.82,2005.82,2005.01,2004.35,2003.79,2003.32,2002.94,2002.62,2002.37,2002.18,2002.07,2002.11,2002.44,2002.3,2001.01,2000.15,1999.64,1999.46,1999.58,2000.03,2000.85,2002.12,2001.46,2001.05,2000.85,2000.75,2000.7,2000.67,2000.66,2000.66,2000.65,2000.63,2000.6,2000.56,2000.51,2000.47,2000.43,2000.39,2000.37,2000.35,2000.34,2000.33,2000.33,2000.33,2000.34,2000.35,2000.37,2000.39,2000.42,2000.46,2000.5,2000.56,2000.63,2000.71,2000.8,2000.91,2001.02,2001.13,2001.24,2001.32,2001.36,2001.36,2001.32,2001.24,2001.14,2001.03,2000.92,2000.82,2000.72,2000.64,2000.58,2000.53,2000.49,2000.46,2000.44,2000.43,2000.42,2000.41,2000.4,2000.39,2000.38,2000.37,2000.37,2000.37,2000.38,2000.4,2000.43,2000.46,2000.49,2000.5,2000.48,2000.45,2000.4,2000.36,2000.33,2000.3,2000.29,2000.28,2000.27,2000.27,2000.27,2000.28,2000.28,2000.29,2000.3,2000.32,2000.33,2000.35,2000.37,2000.39,2000.41,2000.44,2000.47,2000.5,2000.54,2000.59,2000.64,2000.69,2000.75,2000.82,2000.89,2000.98,2001.07,2001.18,2001.29,2001.42,2001.56,2001.71,2001.89,2002.09,2002.3,2002.55,2002.83,2003.13,2003.46,2003.82,2004.2,2004.61,2005.02,2005.41,2005.79,2006.12,2006.17,2006,2005.94,2005.98,2006.13,2006.18,2005.87,2005.5,2005.11,2004.7,2004.29,2003.91,2003.55,2003.22,2002.92,2002.65,2002.41,2002.21,2002.03,2001.88,2001.74,2001.62,2001.5,2001.38,2001.25,2001.13,2001.02,2000.92,2000.83,2000.75,2000.69,2000.63,2000.58,2000.54,2000.5,2000.47,2000.44,2000.41,2000.39,2000.37,2000.36,2000.35,2000.35,2000.36,2000.38,2000.44,2000.54,2000.74,2001.12,2001.39,2000.91,2000.87,2001.27,2001.18,2000.74,2000.5,2000.37,2000.29,2000.25,2000.22,2000.2,2000.18,2000.17,2000.17,2000.16,2000.16,2000.15,2000.15,2000.15,2000.15,2000.15,2000.16,2000.16,2000.17,2000.18,2000.19,2000.2,2000.22,2000.23,2000.24,2000.25,2000.25,2000.24,2000.23,2000.21,2000.19,2000.18,2000.17,2000.16,2000.15,2000.14,2000.14,2000.13,2000.13,2000.13,2000.13,2000.13,2000.13,2000.13,2000.13,2000.13,2000.14,2000.14,2000.15,2000.15,2000.16,2000.17,2000.18,2000.19,2000.21,2000.22,2000.24,2000.26,2000.27,2000.28,2000.29,2000.3,2000.29,2000.29,2000.28,2000.27,2000.25,2000.24,2000.23,2000.23,2000.22,2000.23,2000.24,2000.25,2000.27,2000.31,2000.34,2000.37,2000.38,2000.38,2000.36,2000.32,2000.29,2000.26,2000.24,2000.22,2000.22,2000.22,2000.22,2000.23,2000.25,2000.27,2000.31,2000.36,2000.43,2000.52,2000.67,2000.89,2001.24,2001.85,2002.88,2001.26,1999.96,1998.91,1998.08,1997.45,1997.01,1996.73,1996.63,1996.69,1996.91,1997.31,1997.88,1998.65,1999.64,2000.87,2002.39,2002.08,2001.36,2000.95,2000.7,2000.53,2000.42,2000.34,2000.29,2000.24,2000.21,2000.19,2000.17,2000.15,2000.14,2000.13,2000.12,2000.11,2000.11,2000.1,2000.1,2000.1,2000.09,2000.09,2000.09,2000.09,2000.09,2000.09,2000.09,2000.09
2001.57,2001.77,2001.99,2002.26,2002.57,2002.94,2003.37,2003.9,2004.54,2005.32,2006.3,2006.1,2004.99,2004,2003.11,2002.34,2001.66,2001.07,2000.58,2000.17,1999.85,1999.62,1999.47,1999.4,1999.41,1999.5,1999.68,1999.94,2000.29,2000.72,2001.24,2001.86,2002.57,2003.38,2004.3,2005.34,2006.5,2005.97,2005.07,2004.36,2003.77,2003.29,2002.91,2002.6,2002.39,2002.28,2002.35,2002.93,2001.7,2000.47,1999.63,1999.13,1998.94,1999.05,1999.47,2000.24,2001.43,2001.73,2001.15,2000.89,2000.76,2000.68,2000.63,2000.61,2000.58,2000.56,2000.54,2000.52,2000.49,2000.46,2000.42,2000.4,2000.37,2000.36,2000.34,2000.33,2000.33,2000.32,2000.32,2000.33,2000.34,2000.35,2000.37,2000.39,2000.42,2000.45,2000.49,2000.54,2000.6,2000.66,2000.73,2000.8,2000.86,2000.92,2000.97,2000.99,2000.99,2000.97,2000.93,2000.87,2000.8,2000.73,2000.67,2000.6,2000.55,2000.5,2000.46,2000.43,2000.41,2000.39,2000.38,2000.37,2000.36,2000.35,2000.34,2000.33,2000.33,2000.33,2000.33,2000.33,2000.34,2000.35,2000.36,2000.37,2000.37,2000.36,2000.35,2000.33,2000.31,2000.29,2000.28,2000.27,2000.26,2000.26,2000.26,2000.27,2000.27,2000.28,2000.29,2000.3,2000.31,2000.32,2000.34,2000.36,2000.38,2000.4,2000.43,2000.46,2000.49,2000.53,2000.57,2000.61,2000.67,2000.73,2000.79,2000.86,2000.94,2001.03,2001.12,2001.22,2001.33,2001.45,2001.57,2001.71,2001.87,2002.04,2002.23,2002.44,2002.67,2002.91,2003.18,2003.45,2003.72,2004,2004.26,2004.51,2004.71,2004.87,2004.98,2005.02,2004.99,2004.9,2004.75,2004.55,2004.32,2004.06,2003.78,2003.51,2003.24,2002.98,2002.74,2002.52,2002.33,2002.16,2002.02,2001.9,2001.81,2001.74,2001.66,2001.57,2001.46,2001.32,2001.18,2001.05,2000.93,2000.83,2000.75,2000.68,2000.62,2000.57,2000.52,2000.49,2000.45,2000.43,2000.4,2000.38,2000.37,2000.36,2000.35,2000.35,2000.37,2000.41,2000.49,2000.69,2001.15,2000.9,2000.04,1999.62,1999.59,1999.94,2000.71,2001.25,2000.68,2000.44,2000.32,2000.26,2000.22,2000.2,2000.18,2000.17,2000.16,2000.16,2000.15,2000.15,2000.15,2000.15,2000.15,2000.15,2000.15,2000.15,2000.16,2000.16,2000.17,2000.18,2000.18,2000.19,2000.2,2000.2,2000.2,2000.2,2000.19,2000.18,2000.17,2000.16,2000.15,2000.14,2000.14,2000.13,2000.13,2000.13,2000.12,2000.12,2000.12,2000.12,2000.12,2000.13,2000.13,2000.13,2000.13,2000.14,2000.14,2000.14,2000.15,2000.16,2000.16,2000.17,2000.19,2000.2,2000.21,2000.22,2000.23,2000.23,2000.24,2000.24,2000.24,2000.24,2000.23,2000.23,2000.22,2000.22,2000.21,2000.21,2000.22,2000.23,2000.25,2000.28,2000.33,2000.4,2000.48,2000.56,2000.61,2000.59,2000.53,2000.45,2000.37,2000.31,2000.27,2000.24,2000.22,2000.22,2000.22,2000.23,2000.24,2000.27,2000.3,2000.34,2000.41,2000.49,2000.62,2000.82,2001.11,2001.6,2002.49,2001.9,2000.55,1999.47,1998.62,1997.98,1997.53,1997.25,1997.14,1997.2,1997.43,1997.83,1998.42,1999.21,2000.22,2001.49,2002.86,2001.78,2001.21,2000.87,2000.65,2000.5,2000.4,2000.33,2000.28,2000.24,2000.21,2000.18,2000.16,2000.15,2000.14,2000.13,2000.12,2000.11,2000.11,2000.1,2000.1,2000.09,2000.09,2000.09,2000.09,2000.09,2000.08,2000.08,2000.08,2000.08
2001.69,2001.91,2002.17,2002.47,2002.84,2003.28,2003.81,2004.46,2005.28,2006.32,2005.95,2004.75,2003.67,2002.71,2001.85,2001.09,2000.43,1999.86,1999.38,1998.98,1998.67,1998.44,1998.29,1998.22,1998.23,1998.33,1998.5,1998.76,1999.09,1999.52,2000.03,2000.63,2001.32,2002.11,2003.01,2004.01,2005.13,2006.38,2005.98,2005.03,2004.29,2003.69,2003.22,2002.86,2002.6,2002.46,2002.56,2003.23,2001.49,2000.25,1999.42,1998.92,1998.72,1998.82,1999.23,1999.97,2001.12,2001.93,2001.21,2000.91,2000.76,2000.67,2000.61,2000.58,2000.55,2000.52,2000.5,2000.47,2000.44,2000.42,2000.4,2000.38,2000.36,2000.34,2000.33,2000.32,2000.32,2000.32,2000.32,2000.32,2000.32,2000.33,2000.35,2000.36,2000.38,2000.41,2000.44,2000.47,2000.51,2000.55,2000.6,2000.64,2000.68,2000.72,2000.75,2000.76,2000.76,2000.75,2000.72,2000.68,2000.64,2000.6,2000.55,2000.51,2000.47,2000.44,2000.41,2000.39,2000.37,2000.35,2000.34,2000.33,2000.32,2000.31,2000.31,2000.3,2000.3,2000.29,2000.29,2000.29,2000.3,2000.3,2000.31,2000.31,2000.31,2000.3,2000.3,2000.29,2000.28,2000.27,2000.26,2000.26,2000.25,2000.25,2000.26,2000.26,2000.26,2000.27,2000.28,2000.29,2000.3,2000.31,2000.33,2000.35,2000.37,2000.39,2000.42,2000.44,2000.48,2000.51,2000.55,2000.6,2000.65,2000.71,2000.77,2000.84,2000.92,2001,2001.09,2001.18,2001.27,2001.37,2001.47,2001.58,2001.7,2001.83,2001.97,2002.13,2002.3,2002.49,2002.68,2002.87,2003.07,2003.27,2003.45,2003.61,2003.75,2003.86,2003.93,2003.96,2003.94,2003.87,2003.77,2003.65,2003.49,2003.31,2003.12,2002.92,2002.73,2002.54,2002.37,2002.21,2002.07,2001.97,2001.89,2001.86,2001.87,2001.9,2001.92,2001.88,2001.74,2001.54,2001.32,2001.13,2000.97,2000.84,2000.75,2000.67,2000.61,2000.56,2000.51,2000.47,2000.44,2000.42,2000.39,2000.38,2000.36,2000.35,2000.35,2000.35,2000.38,2000.43,2000.55,2000.87,2001.29,2000,1999.21,1998.82,1998.79,1999.12,1999.83,2001.02,2000.9,2000.51,2000.35,2000.27,2000.23,2000.2,2000.18,2000.17,2000.16,2000.16,2000.15,2000.15,2000.15,2000.14,2000.14,2000.14,2000.14,2000.15,2000.15,2000.15,2000.16,2000.16,2000.16,2000.17,2000.17,2000.17,2000.17,2000.17,2000.16,2000.16,2000.15,2000.15,2000.14,2000.14,2000.13,2000.13,2000.12,2000.12,2000.12,2000.12,2000.12,2000.12,2000.12,2000.12,2000.12,2000.13,2000.13,2000.13,2000.13,2000.14,2000.14,2000.15,2000.15,2000.16,2000.17,2000.18,2000.18,2000.19,2000.2,2000.2,2000.21,2000.21,2000.21,2000.21,2000.2,2000.2,2000.2,2000.2,2000.2,2000.2,2000.22,2000.24,2000.27,2000.33,2000.43,2000.58,2000.81,2001.08,2001.26,2001.21,2000.97,2000.71,2000.51,2000.38,2000.3,2000.26,2000.23,2000.22,2000.22,2000.22,2000.24,2000.26,2000.28,2000.32,2000.38,2000.46,2000.57,2000.74,2000.98,2001.35,2001.98,2002.77,2001.37,2000.25,1999.37,1998.7,1998.23,1997.95,1997.83,1997.9,1998.13,1998.55,1999.16,1999.98,2001.03,2002.35,2002.22,2001.48,2001.05,2000.77,2000.59,2000.47,2000.38,2000.31,2000.26,2000.23,2000.2,2000.18,2000.16,2000.14,2000.13,2000.12,2000.12,2000.11,2000.1,2000.1,2000.1,2000.09,2000.09,2000.09,2000.09,2000.08,2000.08,2000.08,2000.08,2000.08
2001.81,2002.06,2002.35,2002.7,2003.13,2003.66,2004.31,2005.13,2006.2,2005.99,2004.69,2003.53,2002.48,2001.54,2000.7,1999.96,1999.31,1998.75,1998.28,1997.9,1997.59,1997.37,1997.22,1997.16,1997.17,1997.26,1997.43,1997.68,1998.01,1998.42,1998.92,1999.51,2000.19,2000.96,2001.83,2002.81,2003.9,2005.11,2006.45,2005.85,2004.89,2004.15,2003.58,2003.14,2002.82,2002.64,2002.69,2003.38,2001.61,2000.36,1999.51,1998.99,1998.79,1998.88,1999.28,2000.03,2001.17,2001.93,2001.21,2000.92,2000.76,2000.67,2000.6,2000.56,2000.52,2000.49,2000.47,2000.44,2000.42,2000.4,2000.38,2000.36,2000.35,2000.33,2000.33,2000.32,2000.31,2000.31,2000.31,2000.31,2000.31,2000.32,2000.33,2000.34,2000.35,2000.37,2000.39,2000.42,2000.45,2000.47,2000.5,2000.53,2000.56,2000.58,2000.6,2000.61,2000.61,2000.6,2000.58,2000.56,2000.53,2000.5,2000.47,2000.44,2000.41,2000.39,2000.37,2000.35,2000.33,2000.32,2000.31,2000.3,2000.29,2000.29,2000.28,2000.28,2000.27,2000.27,2000.27,2000.27,2000.27,2000.27,2000.27,2000.27,2000.27,2000.27,2000.26,2000.26,2000.25,2000.25,2000.25,2000.24,2000.24,2000.25,2000.25,2000.25,2000.26,2000.26,2000.27,2000.28,2000.29,2000.31,2000.32,2000.34,2000.36,2000.38,2000.4,2000.43,2000.46,2000.5,2000.54,2000.59,2000.64,2000.7,2000.76,2000.84,2000.92,2001.01,2001.09,2001.18,2001.26,2001.34,2001.41,2001.49,2001.57,2001.66,2001.77,2001.88,2002.01,2002.15,2002.28,2002.43,2002.57,2002.72,2002.85,2002.96,2003.06,2003.14,2003.18,2003.2,2003.19,2003.15,2003.08,2002.98,2002.87,2002.75,2002.61,2002.47,2002.33,2002.19,2002.07,2001.96,2001.87,2001.83,2001.84,2001.94,2002.16,2002.51,2002.53,2002.28,2002.4,2002.18,2001.68,2001.31,2001.06,2000.88,2000.76,2000.67,2000.6,2000.55,2000.5,2000.46,2000.43,2000.41,2000.39,2000.37,2000.35,2000.35,2000.34,2000.35,2000.38,2000.44,2000.6,2001.03,2000.76,1999.54,1998.78,1998.41,1998.38,1998.69,1999.37,2000.51,2001.11,2000.57,2000.37,2000.28,2000.23,2000.2,2000.18,2000.17,2000.16,2000.15,2000.15,2000.15,2000.14,2000.14,2000.14,2000.14,2000.14,2000.14,2000.14,2000.14,2000.15,2000.15,2000.15,2000.15,2000.15,2000.15,2000.15,2000.15,2000.15,2000.14,2000.14,2000.14,2000.13,2000.13,2000.12,2000.12,2000.12,2000.12,2000.12,2000.12,2000.12,2000.12,2000.12,2000.12,2000.12,2000.12,2000.12,2000.13,2000.13,2000.13,2000.14,2000.14,2000.14,2000.15,2000.15,2000.16,2000.16,2000.17,2000.17,2000.18,2000.18,2000.18,2000.18,2000.18,2000.18,2000.18,2000.18,2000.19,2000.19,2000.2,2000.22,2000.25,2000.3,2000.4,2000.59,2000.97,2001.36,2000.61,2000.3,2000.38,2000.87,2001.37,2000.78,2000.5,2000.36,2000.28,2000.24,2000.22,2000.22,2000.22,2000.23,2000.25,2000.27,2000.31,2000.36,2000.42,2000.52,2000.65,2000.84,2001.13,2001.56,2002.27,2002.43,2001.25,2000.33,1999.64,1999.15,1998.85,1998.73,1998.8,1999.04,1999.48,2000.12,2000.97,2002.07,2002.54,2001.71,2001.21,2000.89,2000.68,2000.53,2000.43,2000.35,2000.29,2000.25,2000.22,2000.19,2000.17,2000.15,2000.14,2000.13,2000.12,2000.11,2000.11,2000.1,2000.1,2000.09,2000.09,2000.09,2000.09,2000.08,2000.08,2000.08,2000.08,2000.08,2000.08
2001.94,2002.22,2002.55,2002.96,2003.46,2004.08,2004.89,2005.92,2006.22,2004.82,2003.56,2002.42,2001.4,2000.48,1999.66,1998.94,1998.3,1997.76,1997.29,1996.91,1996.62,1996.39,1996.25,1996.19,1996.2,1996.29,1996.46,1996.7,1997.03,1997.43,1997.92,1998.5,1999.16,1999.92,2000.77,2001.73,2002.79,2003.97,2005.28,2006.72,2005.61,2004.67,2003.97,2003.43,2003.03,2002.79,2002.75,2003.21,2002.08,2000.78,1999.9,1999.36,1999.15,1999.23,1999.64,2000.4,2001.58,2001.74,2001.16,2000.9,2000.75,2000.66,2000.6,2000.55,2000.51,2000.48,2000.45,2000.43,2000.41,2000.39,2000.37,2000.35,2000.34,2000.33,2000.32,2000.31,2000.31,2000.3,2000.3,2000.3,2000.3,2000.31,2000.31,2000.32,2000.33,2000.35,2000.36,2000.38,2000.4,2000.42,2000.44,2000.45,2000.47,2000.49,2000.5,2000.5,2000.5,2000.5,2000.48,2000.47,2000.45,2000.43,2000.41,2000.39,2000.37,2000.35,2000.33,2000.32,2000.3,2000.29,2000.28,2000.28,2000.27,2000.26,2000.26,2000.26,2000.25,2000.25,2000.25,2000.25,2000.25,2000.25,2000.25,2000.25,2000.25,2000.25,2000.24,2000.24,2000.24,2000.24,2000.23,2000.23,2000.24,2000.24,2000.24,2000.25,2000.25,2000.26,2000.27,2000.28,2000.29,2000.3,2000.31,2000.33,2000.35,2000.37,2000.39,2000.42,2000.45,2000.49,2000.53,2000.58,2000.63,2000.7,2000.78,2000.86,2000.96,2001.06,2001.16,2001.25,2001.32,2001.37,2001.41,2001.45,2001.49,2001.54,2001.61,2001.69,2001.77,2001.87,2001.98,2002.08,2002.19,2002.29,2002.39,2002.47,2002.54,2002.59,2002.63,2002.64,2002.63,2002.6,2002.55,2002.49,2002.41,2002.31,2002.21,2002.11,2002.01,2001.91,2001.82,2001.76,2001.73,2001.75,2001.89,2002.25,2002.47,2001.51,2000.94,2000.72,2000.83,2001.29,2002.15,2001.69,2001.21,2000.94,2000.78,2000.67,2000.6,2000.54,2000.49,2000.46,2000.43,2000.4,2000.38,2000.36,2000.35,2000.34,2000.34,2000.35,2000.38,2000.44,2000.6,2001.06,2000.68,1999.46,1998.71,1998.34,1998.31,1998.62,1999.3,2000.42,2001.16,2000.58,2000.37,2000.28,2000.23,2000.2,2000.18,2000.17,2000.16,2000.15,2000.15,2000.14,2000.14,2000.14,2000.14,2000.14,2000.14,2000.14,2000.14,2000.14,2000.14,2000.14,2000.14,2000.14,2000.14,2000.14,2000.14,2000.14,2000.14,2000.13,2000.13,2000.13,2000.13,2000.12,2000.12,2000.12,2000.12,2000.11,2000.11,2000.11,2000.11,2000.11,2000.11,2000.12,2000.12,2000.12,2000.12,2000.12,2000.12,2000.13,2000.13,2000.13,2000.14,2000.14,2000.14,2000.15,2000.15,2000.15,2000.16,2000.16,2000.16,2000.16,2000.17,2000.17,2000.17,2000.17,2000.17,2000.18,2000.18,2000.2,2000.22,2000.26,2000.34,2000.5,2000.85,2001.27,2000.14,1999.47,1999.19,1999.26,1999.7,2000.54,2001.31,2000.67,2000.43,2000.31,2000.25,2000.23,2000.22,2000.22,2000.22,2000.24,2000.26,2000.29,2000.33,2000.39,2000.47,2000.57,2000.72,2000.93,2001.23,2001.67,2002.34,2002.53,2001.55,2000.81,2000.29,1999.98,1999.86,1999.92,2000.18,2000.64,2001.32,2002.23,2002.58,2001.82,2001.32,2000.99,2000.76,2000.59,2000.47,2000.39,2000.32,2000.27,2000.24,2000.21,2000.18,2000.16,2000.15,2000.14,2000.13,2000.12,2000.11,2000.11,2000.1,2000.1,2000.09,2000.09,2000.09,2000.08,2000.08,2000.08,2000.08,2000.08,2000.08,2000.08
2002.06,2002.37,2002.75,2003.23,2003.82,2004.56,2005.55,2006.64,2005.14,2003.78,2002.55,2001.43,2000.43,1999.53,1998.73,1998.01,1997.39,1996.86,1996.4,1996.03,1995.73,1995.52,1995.38,1995.32,1995.33,1995.42,1995.58,1995.82,1996.14,1996.54,1997.02,1997.59,1998.24,1998.98,1999.82,2000.75,2001.79,2002.95,2004.22,2005.63,2006.44,2005.25,2004.39,2003.74,2003.26,2002.93,2002.78,2002.94,2002.93,2001.54,2000.6,2000.04,1999.81,1999.9,2000.32,2001.12,2002.39,2001.48,2001.08,2000.87,2000.74,2000.65,2000.59,2000.54,2000.5,2000.47,2000.44,2000.42,2000.4,2000.38,2000.36,2000.35,2000.33,2000.32,2000.31,2000.31,2000.3,2000.3,2000.29,2000.29,2000.29,2000.3,2000.3,2000.3,2000.31,2000.32,2000.33,2000.34,2000.36,2000.37,2000.38,2000.4,2000.41,2000.42,2000.42,2000.43,2000.43,2000.42,2000.41,2000.4,2000.39,2000.38,2000.36,2000.34,2000.33,2000.32,2000.3,2000.29,2000.28,2000.27,2000.26,2000.26,2000.25,2000.25,2000.24,2000.24,2000.24,2000.24,2000.23,2000.23,2000.23,2000.23,2000.23,2000.23,2000.23,2000.23,2000.23,2000.23,2000.23,2000.23,2000.23,2000.23,2000.23,2000.23,2000.23,2000.24,2000.25,2000.25,2000.26,2000.27,2000.28,2000.29,2000.31,2000.32,2000.34,2000.36,2000.38,2000.41,2000.44,2000.48,2000.52,2000.57,2000.64,2000.72,2000.81,2000.93,2001.06,2001.21,2001.35,2001.46,2001.53,2001.54,2001.52,2001.49,2001.48,2001.47,2001.5,2001.53,2001.59,2001.66,2001.73,2001.81,2001.88,2001.96,2002.03,2002.09,2002.14,2002.18,2002.2,2002.21,2002.21,2002.18,2002.15,2002.1,2002.04,2001.97,2001.9,2001.83,2001.75,2001.68,2001.63,2001.6,2001.62,2001.72,2002.05,2002.51,2001.21,2000.34,1999.83,1999.63,1999.73,2000.16,2000.94,2002.15,2001.46,2001.03,2000.81,2000.68,2000.59,2000.53,2000.49,2000.45,2000.42,2000.39,2000.37,2000.36,2000.34,2000.33,2000.33,2000.34,2000.37,2000.43,2000.57,2000.93,2001.02,1999.76,1998.99,1998.61,1998.58,1998.9,1999.59,2000.75,2000.99,2000.53,2000.36,2000.27,2000.22,2000.2,2000.18,2000.17,2000.16,2000.15,2000.14,2000.14,2000.14,2000.14,2000.13,2000.13,2000.13,2000.13,2000.13,2000.13,2000.13,2000.13,2000.13,2000.13,2000.13,2000.13,2000.13,2000.13,2000.13,2000.13,2000.12,2000.12,2000.12,2000.12,2000.12,2000.11,2000.11,2000.11,2000.11,2000.11,2000.11,2000.11,2000.11,2000.11,2000.11,2000.12,2000.12,2000.12,2000.12,2000.12,2000.12,2000.13,2000.13,2000.13,2000.13,2000.14,2000.14,2000.14,2000.14,2000.15,2000.15,2000.15,2000.15,2000.15,2000.16,2000.16,2000.16,2000.17,2000.18,2000.19,2000.22,2000.27,2000.37,2000.6,2001.21,2000.44,1999.39,1998.77,1998.5,1998.57,1998.98,1999.77,2001.04,2000.88,2000.49,2000.34,2000.26,2000.23,2000.21,2000.21,2000.21,2000.23,2000.24,2000.27,2000.31,2000.35,2000.42,2000.5,2000.61,2000.77,2000.97,2001.25,2001.63,2002.15,2002.86,2002.27,2001.71,2001.37,2001.24,2001.32,2001.6,2002.09,2002.82,2002.32,2001.75,2001.33,2001.03,2000.8,2000.64,2000.51,2000.42,2000.35,2000.3,2000.25,2000.22,2000.19,2000.17,2000.16,2000.14,2000.13,2000.12,2000.12,2000.11,2000.1,2000.1,2000.09,2000.09,2000.09,2000.09,2000.08,2000.08,2000.08,2000.08,2000.08,2000.08,2000.08
2002.2,2002.55,2002.98,2003.51,2004.2,2005.09,2006.3,2005.65,2004.18,2002.85,2001.64,2000.55,1999.56,1998.68,1997.89,1997.19,1996.58,1996.05,1995.6,1995.23,1994.94,1994.73,1994.6,1994.53,1994.54,1994.63,1994.79,1995.03,1995.35,1995.74,1996.21,1996.77,1997.41,1998.14,1998.96,1999.88,2000.9,2002.04,2003.28,2004.66,2006.18,2005.92,2004.86,2004.07,2003.49,2003.08,2002.81,2002.75,2003,2002.71,2001.68,2001.07,2000.82,2000.92,2001.38,2002.26,2001.75,2001.27,2001,2000.83,2000.72,2000.64,2000.58,2000.54,2000.5,2000.47,2000.44,2000.42,2000.4,2000.38,2000.36,2000.34,2000.33,2000.32,2000.31,2000.3,2000.3,2000.29,2000.29,2000.29,2000.29,2000.29,2000.29,2000.29,2000.3,2000.3,2000.31,2000.32,2000.33,2000.33,2000.34,2000.35,2000.36,2000.36,2000.37,2000.37,2000.37,2000.37,2000.36,2000.35,2000.34,2000.33,2000.32,2000.31,2000.3,2000.29,2000.28,2000.27,2000.26,2000.25,2000.25,2000.24,2000.24,2000.23,2000.23,2000.23,2000.23,2000.23,2000.22,2000.22,2000.22,2000.22,2000.22,2000.22,2000.22,2000.22,2000.22,2000.22,2000.22,2000.22,2000.22,2000.22,2000.22,2000.23,2000.23,2000.24,2000.24,2000.25,2000.26,2000.26,2000.27,2000.29,2000.3,2000.31,2000.33,2000.35,2000.37,2000.4,2000.43,2000.47,2000.52,2000.58,2000.65,2000.76,2000.89,2001.06,2001.29,2001.56,2001.84,2002.05,2002.12,2002.03,2001.86,2001.68,2001.55,2001.46,2001.43,2001.42,2001.44,2001.48,2001.53,2001.58,2001.64,2001.69,2001.74,2001.79,2001.83,2001.86,2001.87,2001.88,2001.88,2001.86,2001.83,2001.8,2001.75,2001.7,2001.65,2001.59,2001.54,2001.49,2001.47,2001.46,2001.53,2001.72,2002.3,2001.59,2000.38,1999.57,1999.09,1998.9,1999.01,1999.41,2000.15,2001.29,2001.77,2001.13,2000.84,2000.69,2000.59,2000.53,2000.48,2000.44,2000.41,2000.39,2000.37,2000.35,2000.34,2000.33,2000.32,2000.33,2000.35,2000.4,2000.5,2000.74,2001.4,2000.47,1999.65,1999.25,1999.21,1999.55,2000.29,2001.54,2000.75,2000.46,2000.32,2000.26,2000.22,2000.19,2000.17,2000.16,2000.15,2000.15,2000.14,2000.14,2000.14,2000.13,2000.13,2000.13,2000.13,2000.13,2000.13,2000.13,2000.13,2000.13,2000.13,2000.13,2000.12,2000.13,2000.12,2000.12,2000.12,2000.12,2000.12,2000.12,2000.12,2000.11,2000.11,2000.11,2000.11,2000.11,2000.11,2000.11,2000.11,2000.11,2000.11,2000.11,2000.11,2000.11,2000.11,2000.12,2000.12,2000.12,2000.12,2000.12,2000.12,2000.13,2000.13,2000.13,2000.13,2000.13,2000.13,2000.13,2000.14,2000.14,2000.14,2000.14,2000.15,2000.15,2000.15,2000.16,2000.17,2000.19,2000.22,2000.28,2000.39,2000.67,2001.52,2000.05,1999.03,1998.43,1998.17,1998.24,1998.64,1999.4,2000.62,2001.03,2000.53,2000.35,2000.27,2000.23,2000.21,2000.2,2000.21,2000.21,2000.23,2000.25,2000.28,2000.32,2000.37,2000.44,2000.52,2000.63,2000.77,2000.96,2001.19,2001.47,2001.81,2002.17,2002.54,2002.83,2002.96,2002.88,2002.63,2002.28,2001.9,2001.55,2001.25,2001,2000.81,2000.65,2000.54,2000.44,2000.37,2000.31,2000.27,2000.23,2000.21,2000.18,2000.17,2000.15,2000.14,2000.13,2000.12,2000.11,2000.1,2000.1,2000.1,2000.09,2000.09,2000.09,2000.08,2000.08,2000.08,2000.08,2000.08,2000.08,2000.07,2000.07
2002.33,2002.71,2003.19,2003.81,2004.59,2005.67,2006.36,2004.77,2003.33,2002.03,2000.84,1999.76,1998.79,1997.92,1997.14,1996.45,1995.85,1995.33,1994.89,1994.53,1994.24,1994.03,1993.9,1993.83,1993.85,1993.93,1994.09,1994.33,1994.63,1995.02,1995.49,1996.04,1996.67,1997.39,1998.2,1999.1,2000.11,2001.23,2002.45,2003.8,2005.29,2006.67,2005.36,2004.42,2003.73,2003.23,2002.87,2002.66,2002.6,2002.73,2003.07,2002.55,2002.28,2002.4,2002.36,2001.79,2001.38,2001.11,2000.93,2000.8,2000.71,2000.63,2000.58,2000.53,2000.5,2000.47,2000.44,2000.41,2000.39,2000.37,2000.36,2000.34,2000.33,2000.32,2000.31,2000.3,2000.29,2000.29,2000.28,2000.28,2000.28,2000.28,2000.28,2000.28,2000.28,2000.29,2000.29,2000.3,2000.3,2000.31,2000.31,2000.32,2000.32,2000.33,2000.33,2000.33,2000.33,2000.33,2000.32,2000.32,2000.31,2000.3,2000.29,2000.28,2000.28,2000.27,2000.26,2000.25,2000.25,2000.24,2000.24,2000.23,2000.23,2000.22,2000.22,2000.22,2000.22,2000.22,2000.21,2000.21,2000.21,2000.21,2000.21,2000.21,2000.21,2000.21,2000.21,2000.21,2000.21,2000.21,2000.21,2000.22,2000.22,2000.22,2000.23,2000.23,2000.24,2000.24,2000.25,2000.26,2000.27,2000.28,2000.29,2000.31,2000.33,2000.35,2000.37,2000.39,2000.43,2000.47,2000.52,2000.59,2000.68,2000.82,2001.01,2001.31,2001.76,2002.45,2001.85,2001.54,2001.56,2001.88,2002.56,2002.17,2001.76,2001.53,2001.4,2001.35,2001.33,2001.34,2001.37,2001.4,2001.44,2001.48,2001.51,2001.55,2001.58,2001.6,2001.61,2001.62,2001.61,2001.6,2001.58,2001.55,2001.52,2001.48,2001.44,2001.4,2001.37,2001.34,2001.33,2001.35,2001.44,2001.71,2002.55,2001.07,1999.91,1999.12,1998.66,1998.49,1998.6,1999,1999.72,2000.82,2002.06,2001.2,2000.86,2000.69,2000.59,2000.52,2000.47,2000.44,2000.41,2000.38,2000.36,2000.34,2000.33,2000.32,2000.32,2000.32,2000.33,2000.37,2000.43,2000.57,2000.85,2001.49,2000.76,2000.32,2000.28,2000.65,2001.49,2000.89,2000.55,2000.38,2000.29,2000.24,2000.21,2000.19,2000.17,2000.16,2000.15,2000.14,2000.14,2000.14,2000.13,2000.13,2000.13,2000.13,2000.13,2000.13,2000.13,2000.12,2000.12,2000.12,2000.12,2000.12,2000.12,2000.12,2000.12,2000.12,2000.12,2000.12,2000.11,2000.11,2000.11,2000.11,2000.11,2000.11,2000.11,2000.11,2000.11,2000.1,2000.1,2000.11,2000.11,2000.11,2000.11,2000.11,2000.11,2000.11,2000.11,2000.11,2000.12,2000.12,2000.12,2000.12,2000.12,2000.12,2000.12,2000.12,2000.13,2000.13,2000.13,2000.13,2000.13,2000.13,2000.14,2000.14,2000.15,2000.15,2000.16,2000.18,2000.22,2000.27,2000.39,2000.66,2001.52,2000.04,1999.03,1998.42,1998.16,1998.23,1998.63,1999.4,2000.62,2001.03,2000.53,2000.35,2000.26,2000.22,2000.21,2000.2,2000.2,2000.2,2000.22,2000.23,2000.26,2000.29,2000.33,2000.38,2000.44,2000.52,2000.62,2000.74,2000.89,2001.05,2001.24,2001.42,2001.59,2001.7,2001.76,2001.72,2001.62,2001.46,2001.28,2001.1,2000.92,2000.77,2000.64,2000.54,2000.45,2000.38,2000.33,2000.28,2000.24,2000.22,2000.19,2000.17,2000.16,2000.14,2000.13,2000.12,2000.12,2000.11,2000.1,2000.1,2000.09,2000.09,2000.09,2000.08,2000.08,2000.08,2000.08,2000.08,2000.08,2000.07,2000.07,2000.07
2002.46,2002.88,2003.42,2004.11,2005.03,2006.29,2005.56,2004,2002.59,2001.3,2000.13,1999.07,1998.12,1997.26,1996.49,1995.81,1995.21,1994.7,1994.26,1993.9,1993.62,1993.41,1993.28,1993.22,1993.23,1993.31,1993.47,1993.7,1994.01,1994.39,1994.86,1995.4,1996.02,1996.73,1997.53,1998.42,1999.42,2000.51,2001.72,2003.05,2004.51,2006.12,2005.89,2004.79,2003.99,2003.39,2002.95,2002.64,2002.43,2002.32,2002.27,2002.22,2002.12,2001.91,2001.65,2001.4,2001.18,2001.01,2000.88,2000.77,2000.69,2000.63,2000.58,2000.53,2000.5,2000.46,2000.44,2000.41,2000.39,2000.37,2000.36,2000.34,2000.33,2000.32,2000.31,2000.3,2000.29,2000.28,2000.28,2000.28,2000.27,2000.27,2000.27,2000.27,2000.27,2000.27,2000.28,2000.28,2000.28,2000.29,2000.29,2000.29,2000.29,2000.3,2000.3,2000.3,2000.3,2000.29,2000.29,2000.29,2000.28,2000.28,2000.27,2000.26,2000.26,2000.25,2000.24,2000.24,2000.23,2000.23,2000.23,2000.22,2000.22,2000.22,2000.21,2000.21,2000.21,2000.21,2000.21,2000.21,2000.21,2000.21,2000.21,2000.21,2000.21,2000.21,2000.21,2000.21,2000.2,2000.21,2000.21,2000.21,2000.21,2000.22,2000.22,2000.23,2000.23,2000.24,2000.25,2000.25,2000.26,2000.27,2000.29,2000.3,2000.32,2000.34,2000.36,2000.39,2000.42,2000.47,2000.52,2000.6,2000.72,2000.91,2001.21,2001.76,2001.96,2001.02,2000.43,2000.15,2000.16,2000.46,2001.06,2002,2002.25,2001.69,2001.43,2001.3,2001.24,2001.23,2001.23,2001.25,2001.27,2001.3,2001.33,2001.35,2001.37,2001.39,2001.4,2001.4,2001.4,2001.39,2001.37,2001.35,2001.33,2001.3,2001.27,2001.24,2001.22,2001.2,2001.2,2001.24,2001.35,2001.64,2002.53,2000.9,1999.75,1998.99,1998.53,1998.37,1998.48,1998.89,1999.61,2000.71,2002.13,2001.21,2000.86,2000.69,2000.59,2000.52,2000.47,2000.43,2000.4,2000.38,2000.36,2000.34,2000.32,2000.31,2000.31,2000.31,2000.32,2000.33,2000.37,2000.45,2000.57,2000.77,2001.04,2001.27,2001.29,2001.07,2000.78,2000.56,2000.41,2000.32,2000.26,2000.22,2000.2,2000.18,2000.16,2000.15,2000.15,2000.14,2000.14,2000.13,2000.13,2000.13,2000.13,2000.13,2000.12,2000.12,2000.12,2000.12,2000.12,2000.12,2000.12,2000.12,2000.12,2000.12,2000.11,2000.11,2000.11,2000.11,2000.11,2000.11,2000.11,2000.11,2000.11,2000.11,2000.1,2000.1,2000.1,2000.1,2000.1,2000.1,2000.1,2000.1,2000.11,2000.11,2000.11,2000.11,2000.11,2000.11,2000.11,2000.11,2000.11,2000.11,2000.11,2000.12,2000.12,2000.12,2000.12,2000.12,2000.12,2000.12,2000.13,2000.13,2000.13,2000.13,2000.14,2000.15,2000.16,2000.17,2000.21,2000.26,2000.36,2000.59,2001.2,2000.43,1999.38,1998.75,1998.49,1998.56,1998.97,1999.76,2001.02,2000.87,2000.48,2000.32,2000.25,2000.22,2000.2,2000.19,2000.19,2000.19,2000.2,2000.22,2000.24,2000.26,2000.29,2000.33,2000.38,2000.44,2000.51,2000.59,2000.68,2000.78,2000.89,2000.99,2001.08,2001.14,2001.16,2001.15,2001.1,2001.01,2000.91,2000.81,2000.7,2000.61,2000.52,2000.45,2000.38,2000.33,2000.29,2000.25,2000.22,2000.2,2000.18,2000.16,2000.15,2000.14,2000.13,2000.12,2000.11,2000.1,2000.1,2000.1,2000.09,2000.09,2000.09,2000.08,2000.08,2000.08,2000.08,2000.08,2000.07,2000.07,2000.07,2000.07
2002.58,2003.05,2003.64,2004.42,2005.47,2006.55,2004.87,2003.34,2001.94,2000.67,1999.52,1998.47,1997.53,1996.68,1995.92,1995.24,1994.65,1994.15,1993.71,1993.36,1993.08,1992.88,1992.74,1992.68,1992.69,1992.78,1992.93,1993.16,1993.47,1993.85,1994.3,1994.84,1995.46,1996.16,1996.95,1997.83,1998.81,1999.89,2001.09,2002.4,2003.84,2005.42,2006.46,2005.16,2004.24,2003.56,2003.05,2002.67,2002.38,2002.17,2002,2001.86,2001.72,2001.55,2001.39,2001.22,2001.07,2000.95,2000.84,2000.76,2000.68,2000.63,2000.58,2000.53,2000.5,2000.47,2000.44,2000.41,2000.39,2000.37,2000.36,2000.34,2000.33,2000.32,2000.31,2000.3,2000.29,2000.28,2000.28,2000.27,2000.27,2000.26,2000.26,2000.26,2000.26,2000.26,2000.26,2000.27,2000.27,2000.27,2000.27,2000.27,2000.27,2000.27,2000.27,2000.27,2000.27,2000.27,2000.27,2000.26,2000.26,2000.25,2000.25,2000.25,2000.24,2000.23,2000.23,2000.23,2000.22,2000.22,2000.22,2000.21,2000.21,2000.21,2000.21,2000.21,2000.21,2000.21,2000.21,2000.2,2000.2,2000.2,2000.2,2000.2,2000.2,2000.2,2000.2,2000.2,2000.2,2000.2,2000.2,2000.2,2000.21,2000.21,2000.22,2000.22,2000.23,2000.23,2000.24,2000.25,2000.26,2000.27,2000.28,2000.29,2000.31,2000.33,2000.35,2000.38,2000.42,2000.46,2000.53,2000.62,2000.77,2001.02,2001.5,2002.1,2000.83,1999.96,1999.41,1999.15,1999.16,1999.43,1999.99,2000.85,2002.1,2001.98,2001.5,2001.28,2001.18,2001.13,2001.12,2001.12,2001.14,2001.16,2001.17,2001.19,2001.21,2001.22,2001.23,2001.23,2001.23,2001.22,2001.21,2001.19,2001.17,2001.15,2001.13,2001.11,2001.09,2001.09,2001.09,2001.13,2001.24,2001.51,2002.27,2001.08,1999.92,1999.15,1998.69,1998.53,1998.65,1999.07,1999.81,2000.93,2001.92,2001.15,2000.84,2000.68,2000.58,2000.52,2000.47,2000.43,2000.4,2000.37,2000.35,2000.34,2000.32,2000.31,2000.3,2000.3,2000.3,2000.31,2000.33,2000.37,2000.42,2000.49,2000.57,2000.63,2000.63,2000.57,2000.48,2000.39,2000.32,2000.27,2000.23,2000.2,2000.18,2000.17,2000.16,2000.15,2000.14,2000.14,2000.14,2000.13,2000.13,2000.13,2000.12,2000.12,2000.12,2000.12,2000.12,2000.12,2000.12,2000.12,2000.12,2000.11,2000.11,2000.11,2000.11,2000.11,2000.11,2000.11,2000.11,2000.11,2000.11,2000.1,2000.1,2000.1,2000.1,2000.1,2000.1,2000.1,2000.1,2000.1,2000.1,2000.1,2000.1,2000.1,2000.1,2000.11,2000.11,2000.11,2000.11,2000.11,2000.11,2000.11,2000.11,2000.11,2000.11,2000.11,2000.11,2000.11,2000.12,2000.12,2000.12,2000.12,2000.12,2000.13,2000.13,2000.14,2000.15,2000.16,2000.19,2000.24,2000.32,2000.48,2000.84,2001.24,2000.11,1999.45,1999.17,1999.24,1999.68,2000.52,2001.3,2000.66,2000.41,2000.29,2000.23,2000.2,2000.19,2000.18,2000.18,2000.18,2000.19,2000.2,2000.22,2000.24,2000.26,2000.29,2000.33,2000.37,2000.42,2000.48,2000.54,2000.6,2000.67,2000.73,2000.78,2000.81,2000.83,2000.82,2000.79,2000.74,2000.68,2000.61,2000.55,2000.48,2000.43,2000.37,2000.33,2000.29,2000.25,2000.23,2000.2,2000.18,2000.17,2000.15,2000.14,2000.13,2000.12,2000.11,2000.11,2000.1,2000.1,2000.09,2000.09,2000.09,2000.08,2000.08,2000.08,2000.08,2000.07,2000.07,2000.07,2000.07,2000.07,2000.07
2002.7,2003.2,2003.85,2004.71,2005.89,2005.94,2004.28,2002.77,2001.39,2000.14,1998.99,1997.96,1997.02,1996.18,1995.43,1994.76,1994.18,1993.67,1993.25,1992.9,1992.62,1992.42,1992.28,1992.22,1992.23,1992.32,1992.47,1992.7,1993,1993.38,1993.83,1994.36,1994.97,1995.67,1996.45,1997.32,1998.29,1999.37,2000.54,2001.84,2003.26,2004.82,2006.54,2005.53,2004.49,2003.72,2003.15,2002.72,2002.38,2002.12,2001.9,2001.72,2001.56,2001.41,2001.27,2001.14,2001.02,2000.91,2000.82,2000.74,2000.68,2000.62,2000.57,2000.53,2000.5,2000.47,2000.44,2000.41,2000.39,2000.37,2000.35,2000.34,2000.33,2000.31,2000.3,2000.29,2000.29,2000.28,2000.27,2000.27,2000.26,2000.26,2000.26,2000.26,2000.25,2000.25,2000.25,2000.25,2000.25,2000.25,2000.26,2000.25,2000.26,2000.26,2000.25,2000.25,2000.25,2000.25,2000.25,2000.25,2000.24,2000.24,2000.23,2000.23,2000.23,2000.22,2000.22,2000.22,2000.21,2000.21,2000.21,2000.21,2000.21,2000.21,2000.2,2000.21,2000.2,2000.2,2000.2,2000.2,2000.2,2000.2,2000.2,2000.2,2000.2,2000.2,2000.2,2000.2,2000.2,2000.2,2000.2,2000.2,2000.2,2000.21,2000.21,2000.22,2000.22,2000.23,2000.23,2000.24,2000.25,2000.26,2000.27,2000.29,2000.3,2000.32,2000.34,2000.37,2000.41,2000.46,2000.53,2000.63,2000.81,2001.14,2001.85,2001.26,2000.07,1999.24,1998.71,1998.46,1998.46,1998.72,1999.25,2000.07,2001.24,2002.39,2001.58,2001.27,2001.12,2001.05,2001.03,2001.02,2001.02,2001.03,2001.05,2001.06,2001.07,2001.08,2001.08,2001.08,2001.08,2001.07,2001.07,2001.06,2001.04,2001.03,2001.01,2001,2000.99,2000.98,2001,2001.03,2001.12,2001.33,2001.84,2001.62,2000.42,1999.62,1999.16,1999,1999.13,1999.57,2000.34,2001.53,2001.58,2001.05,2000.8,2000.66,2000.58,2000.52,2000.47,2000.43,2000.4,2000.38,2000.35,2000.33,2000.32,2000.31,2000.3,2000.29,2000.29,2000.29,2000.3,2000.31,2000.34,2000.36,2000.39,2000.41,2000.4,2000.38,2000.34,2000.3,2000.26,2000.23,2000.21,2000.19,2000.18,2000.16,2000.16,2000.15,2000.14,2000.14,2000.13,2000.13,2000.13,2000.12,2000.12,2000.12,2000.12,2000.12,2000.12,2000.12,2000.11,2000.11,2000.11,2000.11,2000.11,2000.11,2000.11,2000.11,2000.11,2000.1,2000.1,2000.1,2000.1,2000.1,2000.1,2000.1,2000.1,2000.1,2000.1,2000.1,2000.1,2000.1,2000.1,2000.1,2000.1,2000.1,2000.1,2000.1,2000.1,2000.1,2000.1,2000.1,2000.1,2000.11,2000.11,2000.11,2000.11,2000.11,2000.11,2000.11,2000.11,2000.11,2000.11,2000.12,2000.12,2000.12,2000.13,2000.13,2000.14,2000.16,2000.18,2000.21,2000.27,2000.37,2000.57,2000.95,2001.33,2000.58,2000.27,2000.35,2000.84,2001.36,2000.76,2000.48,2000.33,2000.26,2000.21,2000.19,2000.18,2000.17,2000.17,2000.17,2000.18,2000.19,2000.2,2000.22,2000.23,2000.26,2000.29,2000.32,2000.35,2000.39,2000.43,2000.47,2000.52,2000.55,2000.58,2000.6,2000.61,2000.61,2000.59,2000.56,2000.52,2000.48,2000.44,2000.39,2000.35,2000.32,2000.28,2000.25,2000.23,2000.2,2000.19,2000.17,2000.15,2000.14,2000.13,2000.12,2000.12,2000.11,2000.1,2000.1,2000.09,2000.09,2000.09,2000.08,2000.08,2000.08,2000.08,2000.07,2000.07,2000.07,2000.07,2000.07,2000.07,2000.07
2002.8,2003.35,2004.04,2004.99,2006.32,2005.43,2003.79,2002.29,2000.93,1999.69,1998.56,1997.53,1996.6,1995.77,1995.02,1994.36,1993.78,1993.28,1992.86,1992.51,1992.23,1992.03,1991.9,1991.84,1991.85,1991.93,1992.09,1992.31,1992.61,1992.98,1993.43,1993.96,1994.57,1995.26,1996.03,1996.9,1997.86,1998.92,2000.09,2001.37,2002.78,2004.32,2006.02,2005.88,2004.71,2003.88,2003.25,2002.78,2002.41,2002.11,2001.87,2001.67,2001.5,2001.35,2001.21,2001.09,2000.99,2000.89,2000.81,2000.74,2000.67,2000.62,2000.57,2000.53,2000.5,2000.47,2000.44,2000.41,2000.39,2000.37,2000.36,2000.34,2000.33,2000.31,2000.3,2000.29,2000.28,2000.28,2000.27,2000.27,2000.26,2000.26,2000.25,2000.25,2000.25,2000.25,2000.25,2000.24,2000.24,2000.24,2000.24,2000.24,2000.24,2000.24,2000.24,2000.24,2000.24,2000.24,2000.23,2000.23,2000.23,2000.22,2000.22,2000.22,2000.22,2000.21,2000.21,2000.21,2000.21,2000.2,2000.21,2000.21,2000.21,2000.2,2000.2,2000.2,2000.2,2000.2,2000.2,2000.2,2000.2,2000.2,2000.2,2000.19,2000.19,2000.19,2000.19,2000.19,2000.19,2000.19,2000.19,2000.2,2000.2,2000.2,2000.21,2000.21,2000.22,2000.22,2000.23,2000.24,2000.24,2000.25,2000.27,2000.28,2000.29,2000.31,2000.33,2000.36,2000.4,2000.45,2000.52,2000.64,2000.84,2001.23,2002.19,2000.78,1999.62,1998.81,1998.29,1998.04,1998.04,1998.29,1998.8,1999.6,2000.73,2002.29,2001.65,2001.25,2001.07,2000.98,2000.94,2000.93,2000.93,2000.93,2000.94,2000.95,2000.95,2000.96,2000.96,2000.97,2000.97,2000.96,2000.95,2000.94,2000.93,2000.92,2000.91,2000.9,2000.9,2000.9,2000.91,2000.94,2001.01,2001.15,2001.45,2002.16,2001.29,2000.44,1999.96,1999.79,1999.94,2000.42,2001.26,2001.98,2001.27,2000.94,2000.76,2000.65,2000.58,2000.52,2000.48,2000.44,2000.41,2000.38,2000.36,2000.33,2000.32,2000.3,2000.29,2000.28,2000.28,2000.27,2000.28,2000.28,2000.29,2000.3,2000.31,2000.31,2000.3,2000.29,2000.27,2000.25,2000.23,2000.21,2000.19,2000.18,2000.17,2000.16,2000.15,2000.15,2000.14,2000.13,2000.13,2000.13,2000.13,2000.12,2000.12,2000.12,2000.12,2000.12,2000.12,2000.11,2000.11,2000.11,2000.11,2000.11,2000.11,2000.11,2000.11,2000.1,2000.1,2000.1,2000.1,2000.1,2000.1,2000.1,2000.1,2000.1,2000.1,2000.1,2000.1,2000.1,2000.1,2000.1,2000.1,2000.1,2000.1,2000.1,2000.1,2000.1,2000.1,2000.1,2000.1,2000.1,2000.1,2000.1,2000.1,2000.1,2000.1,2000.1,2000.11,2000.11,2000.11,2000.11,2000.11,2000.11,2000.11,2000.12,2000.12,2000.13,2000.13,2000.15,2000.16,2000.19,2000.23,2000.29,2000.39,2000.55,2000.78,2001.05,2001.24,2001.19,2000.94,2000.68,2000.48,2000.35,2000.27,2000.22,2000.19,2000.18,2000.17,2000.16,2000.16,2000.16,2000.17,2000.18,2000.19,2000.2,2000.21,2000.23,2000.25,2000.27,2000.3,2000.33,2000.35,2000.38,2000.41,2000.43,2000.45,2000.47,2000.47,2000.47,2000.46,2000.44,2000.41,2000.39,2000.36,2000.33,2000.3,2000.27,2000.25,2000.22,2000.2,2000.19,2000.17,2000.16,2000.14,2000.13,2000.13,2000.12,2000.11,2000.1,2000.1,2000.1,2000.09,2000.09,2000.08,2000.08,2000.08,2000.08,2000.07,2000.07,2000.07,2000.07,2000.07,2000.07,2000.07,2000.07
2002.9,2003.47,2004.22,2005.23,2006.7,2005.02,2003.39,2001.91,2000.56,1999.33,1998.2,1997.19,1996.26,1995.44,1994.69,1994.04,1993.46,1992.96,1992.54,1992.2,1991.92,1991.72,1991.59,1991.53,1991.54,1991.62,1991.78,1992,1992.3,1992.67,1993.11,1993.64,1994.24,1994.93,1995.7,1996.55,1997.51,1998.57,1999.72,2001,2002.39,2003.92,2005.6,2006.21,2004.93,2004.02,2003.35,2002.84,2002.44,2002.12,2001.87,2001.65,2001.47,2001.32,2001.19,2001.07,2000.97,2000.88,2000.8,2000.73,2000.67,2000.62,2000.58,2000.54,2000.5,2000.47,2000.44,2000.42,2000.4,2000.38,2000.36,2000.34,2000.33,2000.32,2000.3,2000.29,2000.29,2000.28,2000.27,2000.26,2000.26,2000.25,2000.25,2000.25,2000.24,2000.24,2000.24,2000.24,2000.24,2000.23,2000.23,2000.23,2000.23,2000.23,2000.23,2000.23,2000.22,2000.22,2000.22,2000.22,2000.22,2000.21,2000.21,2000.21,2000.21,2000.2,2000.2,2000.2,2000.2,2000.2,2000.2,2000.2,2000.2,2000.2,2000.21,2000.21,2000.21,2000.21,2000.21,2000.2,2000.2,2000.2,2000.2,2000.19,2000.19,2000.19,2000.19,2000.19,2000.19,2000.19,2000.19,2000.19,2000.2,2000.2,2000.2,2000.21,2000.21,2000.22,2000.22,2000.23,2000.24,2000.25,2000.26,2000.27,2000.28,2000.3,2000.32,2000.35,2000.39,2000.44,2000.51,2000.63,2000.84,2001.25,2002.19,2000.6,1999.45,1998.65,1998.13,1997.88,1997.88,1998.13,1998.63,1999.42,2000.53,2002.07,2001.65,2001.2,2001.01,2000.92,2000.87,2000.85,2000.84,2000.84,2000.85,2000.85,2000.86,2000.86,2000.87,2000.87,2000.87,2000.86,2000.86,2000.85,2000.84,2000.83,2000.83,2000.82,2000.82,2000.82,2000.83,2000.85,2000.9,2001,2001.17,2001.48,2002.05,2001.69,2001.16,2000.99,2001.17,2001.7,2001.96,2001.38,2001.06,2000.87,2000.74,2000.66,2000.59,2000.54,2000.49,2000.45,2000.42,2000.39,2000.36,2000.34,2000.32,2000.3,2000.29,2000.28,2000.27,2000.26,2000.26,2000.26,2000.26,2000.26,2000.26,2000.26,2000.25,2000.24,2000.23,2000.22,2000.2,2000.19,2000.18,2000.17,2000.16,2000.15,2000.15,2000.14,2000.14,2000.13,2000.13,2000.13,2000.12,2000.12,2000.12,2000.12,2000.11,2000.11,2000.11,2000.11,2000.11,2000.11,2000.11,2000.11,2000.11,2000.11,2000.1,2000.1,2000.1,2000.1,2000.1,2000.1,2000.1,2000.1,2000.1,2000.1,2000.1,2000.1,2000.1,2000.1,2000.1,2000.09,2000.1,2000.1,2000.1,2000.1,2000.1,2000.1,2000.1,2000.1,2000.1,2000.1,2000.1,2000.1,2000.1,2000.1,2000.1,2000.1,2000.1,2000.1,2000.1,2000.11,2000.11,2000.11,2000.11,2000.11,2000.12,2000.12,2000.13,2000.14,2000.15,2000.17,2000.19,2000.23,2000.28,2000.36,2000.44,2000.53,2000.57,2000.56,2000.5,2000.41,2000.33,2000.27,2000.23,2000.2,2000.18,2000.16,2000.16,2000.16,2000.15,2000.15,2000.16,2000.16,2000.17,2000.18,2000.19,2000.21,2000.22,2000.24,2000.26,2000.28,2000.3,2000.32,2000.34,2000.35,2000.36,2000.37,2000.37,2000.37,2000.36,2000.35,2000.34,2000.32,2000.3,2000.28,2000.25,2000.23,2000.22,2000.2,2000.18,2000.17,2000.16,2000.15,2000.14,2000.13,2000.12,2000.11,2000.11,2000.1,2000.1,2000.09,2000.09,2000.08,2000.08,2000.08,2000.08,2000.08,2000.07,2000.07,2000.07,2000.07,2000.07,2000.07,2000.07,2000.07
2002.97,2003.56,2004.36,2005.45,2006.48,2004.7,2003.09,2001.62,2000.27,1999.05,1997.93,1996.92,1996,1995.18,1994.44,1993.79,1993.22,1992.72,1992.3,1991.96,1991.69,1991.49,1991.36,1991.3,1991.31,1991.39,1991.54,1991.76,1992.05,1992.42,1992.87,1993.39,1993.99,1994.67,1995.44,1996.29,1997.24,1998.29,1999.45,2000.71,2002.1,2003.62,2005.28,2006.48,2005.1,2004.13,2003.43,2002.89,2002.47,2002.14,2001.87,2001.65,2001.47,2001.31,2001.18,2001.06,2000.96,2000.88,2000.8,2000.73,2000.68,2000.62,2000.58,2000.54,2000.51,2000.47,2000.45,2000.42,2000.4,2000.38,2000.36,2000.35,2000.33,2000.32,2000.31,2000.3,2000.29,2000.28,2000.27,2000.26,2000.26,2000.25,2000.25,2000.24,2000.24,2000.24,2000.23,2000.23,2000.23,2000.23,2000.22,2000.22,2000.22,2000.22,2000.22,2000.22,2000.21,2000.21,2000.21,2000.21,2000.21,2000.2,2000.2,2000.2,2000.2,2000.2,2000.2,2000.2,2000.2,2000.2,2000.2,2000.2,2000.21,2000.21,2000.21,2000.21,2000.22,2000.22,2000.21,2000.21,2000.21,2000.2,2000.2,2000.2,2000.19,2000.19,2000.19,2000.19,2000.19,2000.19,2000.19,2000.19,2000.19,2000.19,2000.2,2000.2,2000.21,2000.21,2000.22,2000.22,2000.23,2000.24,2000.25,2000.26,2000.28,2000.29,2000.31,2000.34,2000.38,2000.42,2000.5,2000.61,2000.81,2001.19,2002.15,2000.73,1999.56,1998.75,1998.23,1997.97,1997.97,1998.21,1998.72,1999.51,2000.63,2002.18,2001.55,2001.13,2000.94,2000.85,2000.8,2000.78,2000.77,2000.77,2000.77,2000.77,2000.77,2000.78,2000.78,2000.78,2000.78,2000.78,2000.77,2000.77,2000.77,2000.76,2000.76,2000.75,2000.75,2000.75,2000.76,2000.78,2000.82,2000.87,2000.97,2001.12,2001.33,2001.6,2001.85,2001.96,2001.84,2001.59,2001.32,2001.11,2000.95,2000.84,2000.75,2000.68,2000.62,2000.57,2000.52,2000.48,2000.44,2000.4,2000.37,2000.34,2000.32,2000.3,2000.29,2000.27,2000.26,2000.25,2000.25,2000.24,2000.24,2000.24,2000.23,2000.23,2000.22,2000.22,2000.21,2000.2,2000.19,2000.18,2000.17,2000.16,2000.16,2000.15,2000.14,2000.14,2000.13,2000.13,2000.13,2000.12,2000.12,2000.12,2000.12,2000.11,2000.11,2000.11,2000.11,2000.11,2000.11,2000.11,2000.11,2000.11,2000.1,2000.1,2000.1,2000.1,2000.1,2000.1,2000.1,2000.1,2000.1,2000.09,2000.09,2000.09,2000.09,2000.09,2000.09,2000.09,2000.09,2000.09,2000.09,2000.09,2000.09,2000.09,2000.09,2000.09,2000.09,2000.09,2000.09,2000.1,2000.1,2000.1,2000.1,2000.1,2000.1,2000.1,2000.1,2000.1,2000.1,2000.1,2000.1,2000.11,2000.11,2000.11,2000.11,2000.12,2000.12,2000.13,2000.14,2000.15,2000.17,2000.19,2000.22,2000.26,2000.29,2000.32,2000.34,2000.34,2000.31,2000.28,2000.24,2000.22,2000.19,2000.17,2000.16,2000.15,2000.15,2000.15,2000.14,2000.15,2000.15,2000.15,2000.16,2000.17,2000.18,2000.19,2000.2,2000.21,2000.22,2000.24,2000.25,2000.27,2000.28,2000.29,2000.3,2000.3,2000.3,2000.3,2000.3,2000.29,2000.28,2000.27,2000.25,2000.24,2000.22,2000.21,2000.19,2000.18,2000.17,2000.15,2000.14,2000.14,2000.13,2000.12,2000.11,2000.1,2000.1,2000.1,2000.09,2000.09,2000.09,2000.08,2000.08,2000.08,2000.08,2000.07,2000.07,2000.07,2000.07,2000.07,2000.07,2000.07,2000.07,2000.06
2003.02,2003.64,2004.46,2005.6,2006.25,2004.48,2002.88,2001.41,2000.07,1998.85,1997.74,1996.73,1995.82,1995,1994.27,1993.62,1993.05,1992.55,1992.14,1991.79,1991.52,1991.32,1991.19,1991.13,1991.14,1991.22,1991.37,1991.59,1991.89,1992.26,1992.7,1993.21,1993.81,1994.49,1995.26,1996.11,1997.05,1998.1,1999.25,2000.51,2001.89,2003.4,2005.06,2006.69,2005.23,2004.23,2003.49,2002.93,2002.5,2002.16,2001.88,2001.65,2001.47,2001.31,2001.18,2001.06,2000.96,2000.88,2000.8,2000.74,2000.68,2000.63,2000.58,2000.54,2000.51,2000.48,2000.45,2000.42,2000.4,2000.38,2000.36,2000.35,2000.33,2000.32,2000.31,2000.3,2000.29,2000.28,2000.27,2000.26,2000.26,2000.25,2000.25,2000.24,2000.24,2000.23,2000.23,2000.23,2000.22,2000.22,2000.22,2000.22,2000.21,2000.21,2000.21,2000.21,2000.21,2000.2,2000.2,2000.2,2000.2,2000.2,2000.19,2000.2,2000.19,2000.19,2000.19,2000.19,2000.2,2000.2,2000.2,2000.21,2000.21,2000.22,2000.22,2000.23,2000.23,2000.23,2000.23,2000.23,2000.22,2000.21,2000.21,2000.2,2000.19,2000.19,2000.19,2000.19,2000.19,2000.18,2000.19,2000.19,2000.19,2000.19,2000.19,2000.2,2000.2,2000.21,2000.21,2000.22,2000.23,2000.23,2000.24,2000.26,2000.27,2000.28,2000.3,2000.33,2000.36,2000.41,2000.47,2000.57,2000.75,2001.07,2001.78,2001.16,1999.96,1999.12,1998.58,1998.32,1998.31,1998.56,1999.07,1999.88,2001.04,2002.2,2001.37,2001.03,2000.87,2000.78,2000.74,2000.71,2000.7,2000.7,2000.7,2000.7,2000.7,2000.71,2000.71,2000.71,2000.71,2000.71,2000.7,2000.7,2000.7,2000.7,2000.69,2000.69,2000.69,2000.7,2000.7,2000.72,2000.74,2000.78,2000.84,2000.92,2001.01,2001.12,2001.21,2001.26,2001.24,2001.18,2001.09,2001.01,2000.94,2000.87,2000.81,2000.75,2000.69,2000.63,2000.57,2000.51,2000.47,2000.42,2000.39,2000.35,2000.33,2000.3,2000.29,2000.27,2000.26,2000.25,2000.24,2000.23,2000.23,2000.22,2000.21,2000.21,2000.2,2000.2,2000.19,2000.18,2000.18,2000.17,2000.16,2000.16,2000.15,2000.15,2000.14,2000.13,2000.13,2000.13,2000.12,2000.12,2000.12,2000.12,2000.11,2000.11,2000.11,2000.11,2000.11,2000.11,2000.11,2000.11,2000.1,2000.1,2000.1,2000.1,2000.1,2000.1,2000.1,2000.1,2000.1,2000.09,2000.09,2000.09,2000.09,2000.09,2000.09,2000.09,2000.09,2000.09,2000.09,2000.09,2000.09,2000.09,2000.09,2000.09,2000.09,2000.09,2000.09,2000.09,2000.09,2000.09,2000.1,2000.1,2000.1,2000.1,2000.1,2000.1,2000.1,2000.1,2000.1,2000.1,2000.1,2000.1,2000.1,2000.11,2000.11,2000.11,2000.12,2000.12,2000.13,2000.14,2000.15,2000.16,2000.18,2000.2,2000.22,2000.23,2000.24,2000.24,2000.23,2000.21,2000.19,2000.18,2000.16,2000.15,2000.15,2000.14,2000.14,2000.14,2000.14,2000.14,2000.14,2000.14,2000.15,2000.16,2000.16,2000.17,2000.18,2000.19,2000.2,2000.21,2000.22,2000.23,2000.24,2000.24,2000.25,2000.25,2000.25,2000.25,2000.25,2000.24,2000.23,2000.23,2000.21,2000.21,2000.19,2000.18,2000.17,2000.16,2000.15,2000.14,2000.13,2000.12,2000.12,2000.11,2000.11,2000.1,2000.1,2000.09,2000.09,2000.09,2000.08,2000.08,2000.08,2000.08,2000.08,2000.07,2000.07,2000.07,2000.07,2000.07,2000.07,2000.07,2000.07,2000.06
2003.06,2003.69,2004.52,2005.69,2006.11,2004.36,2002.75,2001.29,1999.96,1998.74,1997.63,1996.63,1995.72,1994.9,1994.17,1993.52,1992.95,1992.46,1992.05,1991.71,1991.44,1991.24,1991.11,1991.05,1991.06,1991.13,1991.28,1991.5,1991.79,1992.16,1992.6,1993.12,1993.71,1994.39,1995.15,1996,1996.95,1997.99,1999.14,2000.39,2001.77,2003.28,2004.93,2006.75,2005.31,2004.28,2003.53,2002.96,2002.52,2002.17,2001.88,2001.66,2001.47,2001.31,2001.17,2001.06,2000.96,2000.88,2000.8,2000.74,2000.68,2000.63,2000.59,2000.55,2000.51,2000.48,2000.46,2000.43,2000.41,2000.39,2000.37,2000.35,2000.34,2000.32,2000.31,2000.3,2000.29,2000.28,2000.27,2000.26,2000.26,2000.25,2000.24,2000.24,2000.23,2000.23,2000.23,2000.22,2000.22,2000.21,2000.21,2000.21,2000.21,2000.2,2000.2,2000.2,2000.2,2000.2,2000.19,2000.19,2000.19,2000.19,2000.19,2000.19,2000.19,2000.19,2000.19,2000.19,2000.2,2000.2,2000.21,2000.21,2000.22,2000.24,2000.25,2000.26,2000.27,2000.27,2000.27,2000.25,2000.24,2000.23,2000.22,2000.21,2000.2,2000.19,2000.19,2000.18,2000.18,2000.18,2000.18,2000.18,2000.18,2000.19,2000.19,2000.19,2000.2,2000.2,2000.21,2000.21,2000.22,2000.23,2000.24,2000.25,2000.26,2000.27,2000.29,2000.32,2000.35,2000.39,2000.44,2000.53,2000.67,2000.91,2001.38,2001.94,2000.66,1999.78,1999.22,1998.94,1998.93,1999.18,1999.72,2000.56,2001.78,2001.68,2001.16,2000.92,2000.79,2000.72,2000.68,2000.66,2000.65,2000.64,2000.64,2000.64,2000.64,2000.64,2000.65,2000.65,2000.65,2000.65,2000.65,2000.64,2000.64,2000.64,2000.64,2000.64,2000.64,2000.65,2000.66,2000.67,2000.69,2000.72,2000.76,2000.81,2000.86,2000.93,2000.98,2001.03,2001.05,2001.06,2001.06,2001.05,2001.04,2001,2000.95,2000.89,2000.81,2000.73,2000.65,2000.57,2000.51,2000.45,2000.41,2000.37,2000.33,2000.31,2000.29,2000.27,2000.25,2000.24,2000.23,2000.22,2000.22,2000.21,2000.2,2000.2,2000.19,2000.18,2000.18,2000.17,2000.17,2000.16,2000.16,2000.15,2000.15,2000.14,2000.14,2000.13,2000.13,2000.13,2000.12,2000.12,2000.12,2000.11,2000.11,2000.11,2000.11,2000.11,2000.11,2000.11,2000.11,2000.1,2000.1,2000.1,2000.1,2000.1,2000.1,2000.1,2000.1,2000.09,2000.09,2000.09,2000.09,2000.09,2000.09,2000.09,2000.09,2000.09,2000.09,2000.09,2000.09,2000.09,2000.09,2000.09,2000.09,2000.09,2000.09,2000.09,2000.09,2000.09,2000.09,2000.09,2000.09,2000.09,2000.09,2000.09,2000.1,2000.1,2000.1,2000.1,2000.1,2000.1,2000.1,2000.1,2000.1,2000.1,2000.11,2000.11,2000.11,2000.12,2000.12,2000.13,2000.13,2000.14,2000.15,2000.16,2000.17,2000.18,2000.18,2000.18,2000.18,2000.17,2000.16,2000.15,2000.14,2000.14,2000.13,2000.13,2000.13,2000.13,2000.13,2000.13,2000.13,2000.13,2000.14,2000.14,2000.15,2000.16,2000.16,2000.17,2000.18,2000.18,2000.19,2000.2,2000.2,2000.21,2000.21,2000.22,2000.22,2000.22,2000.21,2000.21,2000.2,2000.2,2000.19,2000.18,2000.17,2000.16,2000.15,2000.14,2000.14,2000.13,2000.12,2000.12,2000.11,2000.11,2000.1,2000.1,2000.09,2000.09,2000.09,2000.08,2000.08,2000.08,2000.08,2000.08,2000.07,2000.07,2000.07,2000.07,2000.07,2000.07,2000.07,2000.07,2000.07,2000.06
2003.07,2003.7,2004.54,2005.72,2006.08,2004.32,2002.72,2001.26,1999.93,1998.71,1997.6,1996.6,1995.69,1994.88,1994.15,1993.5,1992.93,1992.45,1992.03,1991.69,1991.42,1991.22,1991.1,1991.03,1991.04,1991.12,1991.26,1991.48,1991.77,1992.14,1992.58,1993.09,1993.69,1994.36,1995.12,1995.97,1996.92,1997.96,1999.1,2000.36,2001.74,2003.24,2004.9,2006.71,2005.34,2004.3,2003.54,2002.97,2002.52,2002.17,2001.89,2001.66,2001.47,2001.31,2001.17,2001.06,2000.96,2000.88,2000.81,2000.74,2000.69,2000.64,2000.59,2000.55,2000.52,2000.49,2000.46,2000.44,2000.41,2000.39,2000.37,2000.36,2000.34,2000.33,2000.32,2000.3,2000.29,2000.28,2000.27,2000.27,2000.26,2000.25,2000.25,2000.24,2000.23,2000.23,2000.22,2000.22,2000.22,2000.21,2000.21,2000.2,2000.2,2000.2,2000.2,2000.19,2000.19,2000.19,2000.19,2000.19,2000.19,2000.19,2000.19,2000.18,2000.18,2000.19,2000.19,2000.19,2000.2,2000.2,2000.21,2000.23,2000.25,2000.27,2000.3,2000.32,2000.34,2000.34,2000.33,2000.31,2000.28,2000.26,2000.23,2000.22,2000.2,2000.19,2000.19,2000.18,2000.18,2000.18,2000.18,2000.18,2000.18,2000.18,2000.19,2000.19,2000.19,2000.2,2000.2,2000.21,2000.21,2000.22,2000.23,2000.24,2000.25,2000.27,2000.28,2000.3,2000.33,2000.36,2000.41,2000.48,2000.59,2000.76,2001.06,2001.6,2001.73,2000.78,2000.17,1999.87,1999.85,2000.12,2000.69,2001.6,2001.87,2001.27,2000.97,2000.8,2000.71,2000.66,2000.62,2000.61,2000.59,2000.59,2000.59,2000.59,2000.59,2000.59,2000.59,2000.59,2000.6,2000.59,2000.59,2000.59,2000.6,2000.6,2000.6,2000.6,2000.61,2000.61,2000.62,2000.63,2000.65,2000.68,2000.71,2000.75,2000.79,2000.85,2000.91,2000.97,2001.04,2001.11,2001.19,2001.25,2001.29,2001.29,2001.25,2001.15,2001.03,2000.9,2000.78,2000.67,2000.57,2000.5,2000.44,2000.39,2000.35,2000.32,2000.29,2000.27,2000.25,2000.24,2000.23,2000.22,2000.21,2000.2,2000.19,2000.19,2000.18,2000.18,2000.17,2000.17,2000.16,2000.16,2000.15,2000.15,2000.14,2000.14,2000.13,2000.13,2000.13,2000.12,2000.12,2000.12,2000.11,2000.11,2000.11,2000.11,2000.11,2000.11,2000.1,2000.1,2000.1,2000.1,2000.1,2000.1,2000.1,2000.1,2000.1,2000.09,2000.09,2000.09,2000.09,2000.09,2000.09,2000.09,2000.09,2000.09,2000.09,2000.09,2000.09,2000.09,2000.09,2000.09,2000.09,2000.09,2000.09,2000.09,2000.09,2000.09,2000.09,2000.09,2000.09,2000.09,2000.09,2000.09,2000.09,2000.09,2000.09,2000.09,2000.1,2000.1,2000.1,2000.1,2000.1,2000.1,2000.1,2000.1,2000.1,2000.11,2000.11,2000.11,2000.11,2000.12,2000.12,2000.13,2000.13,2000.14,2000.15,2000.15,2000.15,2000.15,2000.15,2000.15,2000.14,2000.14,2000.13,2000.13,2000.13,2000.12,2000.12,2000.12,2000.12,2000.12,2000.12,2000.13,2000.13,2000.13,2000.14,2000.14,2000.15,2000.15,2000.16,2000.16,2000.17,2000.17,2000.18,2000.18,2000.18,2000.19,2000.19,2000.18,2000.18,2000.18,2000.17,2000.17,2000.16,2000.16,2000.15,2000.14,2000.14,2000.13,2000.13,2000.12,2000.12,2000.11,2000.1,2000.1,2000.1,2000.09,2000.09,2000.09,2000.08,2000.08,2000.08,2000.08,2000.08,2000.07,2000.07,2000.07,2000.07,2000.07,2000.07,2000.07,2000.07,2000.07,2000.06,2000.06
2003.06,2003.68,2004.52,2005.68,2006.14,2004.38,2002.77,2001.31,1999.98,1998.76,1997.66,1996.65,1995.74,1994.93,1994.2,1993.56,1992.99,1992.51,1992.1,1991.76,1991.49,1991.29,1991.16,1991.1,1991.1,1991.18,1991.32,1991.54,1991.83,1992.19,1992.63,1993.14,1993.73,1994.41,1995.17,1996.02,1996.97,1998.01,1999.15,2000.41,2001.79,2003.3,2004.95,2006.81,2005.3,2004.28,2003.53,2002.96,2002.51,2002.16,2001.88,2001.65,2001.47,2001.31,2001.18,2001.06,2000.97,2000.88,2000.81,2000.75,2000.69,2000.64,2000.6,2000.56,2000.53,2000.5,2000.47,2000.44,2000.42,2000.4,2000.38,2000.36,2000.35,2000.33,2000.32,2000.31,2000.3,2000.29,2000.28,2000.27,2000.26,2000.25,2000.25,2000.24,2000.23,2000.23,2000.22,2000.22,2000.21,2000.21,2000.2,2000.2,2000.2,2000.19,2000.19,2000.19,2000.19,2000.18,2000.18,2000.18,2000.18,2000.18,2000.18,2000.18,2000.18,2000.18,2000.19,2000.19,2000.2,2000.21,2000.22,2000.25,2000.28,2000.33,2000.38,2000.44,2000.49,2000.5,2000.47,2000.42,2000.35,2000.3,2000.26,2000.23,2000.21,2000.2,2000.19,2000.18,2000.18,2000.18,2000.18,2000.18,2000.18,2000.18,2000.18,2000.19,2000.19,2000.19,2000.2,2000.2,2000.21,2000.22,2000.22,2000.23,2000.24,2000.26,2000.27,2000.29,2000.31,2000.34,2000.38,2000.44,2000.52,2000.64,2000.82,2001.1,2001.54,2002.19,2001.51,2001.18,2001.16,2001.45,2002.08,2001.72,2001.27,2000.98,2000.81,2000.7,2000.64,2000.6,2000.57,2000.56,2000.55,2000.55,2000.54,2000.54,2000.54,2000.55,2000.55,2000.55,2000.55,2000.55,2000.55,2000.55,2000.56,2000.56,2000.56,2000.57,2000.57,2000.58,2000.59,2000.61,2000.63,2000.65,2000.68,2000.72,2000.78,2000.84,2000.92,2001.02,2001.16,2001.32,2001.52,2001.72,2001.89,2001.95,2001.88,2001.7,2001.45,2001.2,2000.98,2000.8,2000.66,2000.56,2000.47,2000.41,2000.36,2000.32,2000.29,2000.27,2000.25,2000.24,2000.22,2000.21,2000.2,2000.2,2000.19,2000.18,2000.18,2000.17,2000.16,2000.16,2000.16,2000.15,2000.15,2000.14,2000.14,2000.13,2000.13,2000.13,2000.12,2000.12,2000.12,2000.11,2000.11,2000.11,2000.11,2000.11,2000.11,2000.1,2000.1,2000.1,2000.1,2000.1,2000.1,2000.1,2000.1,2000.1,2000.1,2000.09,2000.09,2000.09,2000.09,2000.09,2000.09,2000.09,2000.09,2000.09,2000.09,2000.09,2000.09,2000.09,2000.09,2000.09,2000.09,2000.09,2000.09,2000.09,2000.09,2000.09,2000.09,2000.09,2000.09,2000.09,2000.09,2000.09,2000.09,2000.09,2000.09,2000.09,2000.09,2000.09,2000.1,2000.1,2000.1,2000.1,2000.1,2000.1,2000.1,2000.1,2000.1,2000.11,2000.11,2000.11,2000.12,2000.12,2000.12,2000.13,2000.13,2000.13,2000.13,2000.13,2000.13,2000.13,2000.13,2000.13,2000.12,2000.12,2000.12,2000.12,2000.12,2000.11,2000.11,2000.11,2000.12,2000.12,2000.12,2000.12,2000.13,2000.13,2000.13,2000.14,2000.14,2000.15,2000.15,2000.15,2000.16,2000.16,2000.16,2000.16,2000.16,2000.16,2000.16,2000.16,2000.15,2000.15,2000.15,2000.14,2000.14,2000.13,2000.13,2000.12,2000.12,2000.11,2000.11,2000.1,2000.1,2000.1,2000.09,2000.09,2000.09,2000.08,2000.08,2000.08,2000.08,2000.08,2000.08,2000.07,2000.07,2000.07,2000.07,2000.07,2000.07,2000.07,2000.07,2000.07,2000.06,2000.06
2003.02,2003.63,2004.45,2005.58,2006.29,2004.52,2002.92,2001.45,2000.11,1998.9,1997.79,1996.78,1995.88,1995.06,1994.33,1993.69,1993.13,1992.65,1992.25,1991.91,1991.65,1991.45,1991.32,1991.25,1991.25,1991.32,1991.46,1991.67,1991.95,1992.31,1992.75,1993.26,1993.86,1994.54,1995.3,1996.15,1997.09,1998.14,1999.29,2000.55,2001.93,2003.44,2005.1,2006.66,2005.21,2004.22,2003.49,2002.93,2002.49,2002.15,2001.87,2001.65,2001.46,2001.31,2001.18,2001.06,2000.97,2000.89,2000.82,2000.75,2000.7,2000.65,2000.61,2000.57,2000.54,2000.5,2000.48,2000.45,2000.43,2000.41,2000.39,2000.37,2000.36,2000.34,2000.33,2000.32,2000.31,2000.29,2000.28,2000.28,2000.27,2000.26,2000.25,2000.24,2000.23,2000.23,2000.22,2000.22,2000.21,2000.21,2000.2,2000.2,2000.19,2000.19,2000.19,2000.18,2000.18,2000.18,2000.18,2000.18,2000.18,2000.18,2000.18,2000.18,2000.18,2000.18,2000.18,2000.19,2000.2,2000.22,2000.24,2000.28,2000.34,2000.43,2000.57,2000.74,2000.89,2000.93,2000.83,2000.65,2000.5,2000.38,2000.3,2000.26,2000.22,2000.2,2000.19,2000.19,2000.18,2000.18,2000.18,2000.18,2000.18,2000.18,2000.18,2000.18,2000.18,2000.19,2000.19,2000.2,2000.2,2000.21,2000.22,2000.22,2000.23,2000.24,2000.26,2000.27,2000.29,2000.32,2000.35,2000.4,2000.46,2000.54,2000.65,2000.8,2001,2001.25,2001.5,2001.68,2001.71,2001.57,2001.34,2001.11,2000.92,2000.78,2000.68,2000.62,2000.57,2000.54,2000.53,2000.51,2000.51,2000.51,2000.5,2000.5,2000.5,2000.51,2000.51,2000.51,2000.51,2000.51,2000.51,2000.52,2000.52,2000.52,2000.53,2000.54,2000.55,2000.56,2000.58,2000.59,2000.62,2000.65,2000.68,2000.73,2000.79,2000.88,2001,2001.17,2001.42,2001.77,2002.27,2002.41,2001.93,2001.74,2001.82,2002.17,2002.37,2001.78,2001.33,2001.02,2000.79,2000.64,2000.52,2000.44,2000.38,2000.34,2000.3,2000.27,2000.25,2000.24,2000.22,2000.21,2000.2,2000.19,2000.18,2000.18,2000.17,2000.16,2000.16,2000.16,2000.15,2000.15,2000.14,2000.14,2000.14,2000.13,2000.13,2000.12,2000.12,2000.12,2000.12,2000.11,2000.11,2000.11,2000.11,2000.11,2000.1,2000.1,2000.1,2000.1,2000.1,2000.1,2000.1,2000.1,2000.1,2000.1,2000.09,2000.09,2000.09,2000.09,2000.09,2000.09,2000.09,2000.09,2000.09,2000.09,2000.09,2000.09,2000.09,2000.09,2000.09,2000.09,2000.08,2000.09,2000.09,2000.09,2000.09,2000.09,2000.09,2000.09,2000.09,2000.09,2000.09,2000.09,2000.09,2000.09,2000.09,2000.09,2000.09,2000.09,2000.1,2000.1,2000.1,2000.1,2000.1,2000.1,2000.1,2000.1,2000.1,2000.1,2000.11,2000.11,2000.11,2000.11,2000.11,2000.12,2000.12,2000.12,2000.12,2000.12,2000.12,2000.12,2000.12,2000.12,2000.11,2000.11,2000.11,2000.11,2000.11,2000.11,2000.11,2000.11,2000.11,2000.11,2000.11,2000.12,2000.12,2000.12,2000.12,2000.13,2000.13,2000.13,2000.14,2000.14,2000.14,2000.14,2000.14,2000.15,2000.15,2000.15,2000.14,2000.14,2000.14,2000.14,2000.13,2000.13,2000.12,2000.12,2000.12,2000.11,2000.11,2000.1,2000.1,2000.1,2000.09,2000.09,2000.09,2000.09,2000.08,2000.08,2000.08,2000.08,2000.08,2000.07,2000.07,2000.07,2000.07,2000.07,2000.07,2000.07,2000.07,2000.07,2000.07,2000.07,2000.06,2000.06
2002.97,2003.55,2004.34,2005.42,2006.54,2004.77,2003.15,2001.68,2000.34,1999.11,1998,1996.99,1996.08,1995.27,1994.55,1993.91,1993.36,1992.88,1992.48,1992.15,1991.89,1991.7,1991.56,1991.49,1991.48,1991.54,1991.68,1991.88,1992.16,1992.52,1992.95,1993.46,1994.06,1994.74,1995.5,1996.35,1997.3,1998.35,1999.5,2000.77,2002.16,2003.68,2005.35,2006.44,2005.08,2004.12,2003.42,2002.88,2002.46,2002.13,2001.86,2001.64,2001.46,2001.3,2001.18,2001.07,2000.97,2000.89,2000.82,2000.76,2000.71,2000.66,2000.62,2000.58,2000.55,2000.51,2000.49,2000.46,2000.44,2000.42,2000.4,2000.38,2000.37,2000.35,2000.34,2000.33,2000.31,2000.3,2000.29,2000.28,2000.27,2000.26,2000.25,2000.25,2000.24,2000.23,2000.22,2000.22,2000.21,2000.2,2000.2,2000.2,2000.19,2000.19,2000.18,2000.18,2000.18,2000.18,2000.18,2000.17,2000.17,2000.17,2000.17,2000.17,2000.18,2000.18,2000.18,2000.19,2000.2,2000.22,2000.26,2000.32,2000.42,2000.62,2000.99,2001.38,2000.82,2000.7,2001.02,2001.3,2000.79,2000.51,2000.36,2000.28,2000.24,2000.21,2000.2,2000.19,2000.18,2000.18,2000.17,2000.17,2000.17,2000.17,2000.18,2000.18,2000.18,2000.18,2000.19,2000.19,2000.2,2000.2,2000.21,2000.22,2000.23,2000.24,2000.25,2000.26,2000.28,2000.3,2000.33,2000.36,2000.4,2000.46,2000.53,2000.62,2000.72,2000.83,2000.93,2001,2001.01,2000.97,2000.89,2000.8,2000.71,2000.64,2000.58,2000.54,2000.52,2000.5,2000.48,2000.48,2000.47,2000.47,2000.47,2000.47,2000.47,2000.47,2000.47,2000.48,2000.48,2000.48,2000.48,2000.49,2000.49,2000.5,2000.51,2000.52,2000.53,2000.55,2000.57,2000.59,2000.62,2000.66,2000.7,2000.76,2000.84,2000.95,2001.13,2001.42,2001.89,2002.6,2001.58,2000.88,2000.45,2000.27,2000.34,2000.66,2001.25,2002.13,2001.96,2001.34,2000.97,2000.74,2000.58,2000.48,2000.4,2000.35,2000.31,2000.28,2000.25,2000.23,2000.22,2000.21,2000.2,2000.19,2000.18,2000.17,2000.17,2000.16,2000.16,2000.15,2000.15,2000.14,2000.14,2000.14,2000.13,2000.13,2000.13,2000.12,2000.12,2000.12,2000.12,2000.11,2000.11,2000.11,2000.11,2000.11,2000.1,2000.1,2000.1,2000.1,2000.1,2000.1,2000.1,2000.1,2000.1,2000.09,2000.09,2000.09,2000.09,2000.09,2000.09,2000.09,2000.09,2000.09,2000.09,2000.09,2000.09,2000.09,2000.08,2000.08,2000.08,2000.08,2000.08,2000.09,2000.09,2000.09,2000.09,2000.09,2000.09,2000.09,2000.09,2000.09,2000.09,2000.09,2000.09,2000.09,2000.09,2000.09,2000.09,2000.09,2000.1,2000.1,2000.1,2000.1,2000.1,2000.1,2000.1,2000.1,2000.1,2000.1,2000.1,2000.11,2000.11,2000.11,2000.11,2000.11,2000.11,2000.11,2000.11,2000.11,2000.11,2000.11,2000.11,2000.11,2000.11,2000.11,2000.11,2000.11,2000.1,2000.1,2000.1,2000.1,2000.1,2000.11,2000.11,2000.11,2000.11,2000.11,2000.12,2000.12,2000.12,2000.12,2000.13,2000.13,2000.13,2000.13,2000.13,2000.13,2000.13,2000.13,2000.13,2000.13,2000.13,2000.12,2000.12,2000.12,2000.12,2000.11,2000.11,2000.1,2000.1,2000.1,2000.1,2000.09,2000.09,2000.09,2000.09,2000.08,2000.08,2000.08,2000.08,2000.08,2000.07,2000.07,2000.07,2000.07,2000.07,2000.07,2000.07,2000.07,2000.07,2000.07,2000.07,2000.07,2000.06,2000.06
2002.89,2003.46,2004.2,2005.2,2006.64,2005.1,2003.47,2001.99,2000.64,1999.41,1998.3,1997.29,1996.38,1995.56,1994.84,1994.21,1993.66,1993.2,1992.82,1992.51,1992.27,1992.07,1991.94,1991.85,1991.82,1991.86,1991.98,1992.17,1992.44,1992.79,1993.22,1993.74,1994.33,1995.01,1995.78,1996.64,1997.59,1998.64,1999.8,2001.08,2002.47,2004.01,2005.69,2006.16,2004.9,2004,2003.33,2002.82,2002.42,2002.1,2001.84,2001.62,2001.45,2001.3,2001.18,2001.07,2000.98,2000.9,2000.83,2000.77,2000.72,2000.67,2000.63,2000.59,2000.56,2000.53,2000.5,2000.47,2000.45,2000.43,2000.41,2000.39,2000.38,2000.36,2000.35,2000.34,2000.33,2000.32,2000.31,2000.29,2000.28,2000.27,2000.26,2000.25,2000.24,2000.23,2000.22,2000.22,2000.21,2000.2,2000.2,2000.19,2000.19,2000.19,2000.18,2000.18,2000.18,2000.18,2000.17,2000.17,2000.17,2000.17,2000.17,2000.17,2000.17,2000.18,2000.18,2000.19,2000.21,2000.23,2000.28,2000.37,2000.54,2000.96,2000.99,2000.05,1999.56,1999.46,1999.74,2000.43,2001.44,2000.72,2000.45,2000.32,2000.26,2000.22,2000.2,2000.19,2000.18,2000.18,2000.17,2000.17,2000.17,2000.17,2000.17,2000.18,2000.18,2000.18,2000.18,2000.19,2000.19,2000.2,2000.2,2000.21,2000.22,2000.23,2000.24,2000.25,2000.26,2000.28,2000.3,2000.33,2000.36,2000.4,2000.44,2000.5,2000.56,2000.61,2000.66,2000.7,2000.71,2000.7,2000.66,2000.62,2000.58,2000.54,2000.51,2000.49,2000.47,2000.46,2000.45,2000.44,2000.44,2000.44,2000.44,2000.44,2000.44,2000.44,2000.44,2000.45,2000.45,2000.45,2000.45,2000.46,2000.47,2000.48,2000.49,2000.5,2000.52,2000.54,2000.57,2000.6,2000.64,2000.69,2000.74,2000.82,2000.92,2001.08,2001.34,2001.81,2002.59,2001.31,2000.37,1999.72,1999.32,1999.15,1999.22,1999.52,2000.06,2000.88,2002.01,2001.84,2001.21,2000.86,2000.65,2000.51,2000.42,2000.36,2000.31,2000.28,2000.25,2000.23,2000.22,2000.2,2000.19,2000.18,2000.18,2000.17,2000.16,2000.16,2000.15,2000.15,2000.14,2000.14,2000.14,2000.13,2000.13,2000.13,2000.12,2000.12,2000.12,2000.12,2000.11,2000.11,2000.11,2000.11,2000.11,2000.1,2000.1,2000.1,2000.1,2000.1,2000.1,2000.1,2000.1,2000.1,2000.1,2000.09,2000.09,2000.09,2000.09,2000.09,2000.09,2000.09,2000.09,2000.09,2000.09,2000.09,2000.08,2000.08,2000.08,2000.08,2000.08,2000.08,2000.08,2000.08,2000.09,2000.09,2000.09,2000.09,2000.09,2000.09,2000.09,2000.09,2000.09,2000.09,2000.09,2000.09,2000.09,2000.09,2000.09,2000.09,2000.1,2000.1,2000.1,2000.1,2000.1,2000.1,2000.1,2000.1,2000.1,2000.1,2000.1,2000.1,2000.1,2000.1,2000.1,2000.1,2000.1,2000.1,2000.1,2000.1,2000.1,2000.1,2000.1,2000.1,2000.1,2000.1,2000.1,2000.1,2000.1,2000.1,2000.1,2000.1,2000.1,2000.1,2000.1,2000.1,2000.11,2000.11,2000.11,2000.11,2000.11,2000.11,2000.12,2000.12,2000.12,2000.12,2000.12,2000.12,2000.12,2000.12,2000.12,2000.12,2000.12,2000.11,2000.11,2000.11,2000.11,2000.1,2000.1,2000.1,2000.1,2000.09,2000.09,2000.09,2000.09,2000.08,2000.08,2000.08,2000.08,2000.08,2000.08,2000.07,2000.07,2000.07,2000.07,2000.07,2000.07,2000.07,2000.07,2000.07,2000.07,2000.07,2000.06,2000.06,2000.06,2000.06
2002.8,2003.33,2004.02,2004.96,2006.26,2005.53,2003.89,2002.4,2001.03,1999.8,1998.67,1997.66,1996.75,1995.93,1995.22,1994.6,1994.08,1993.64,1993.3,1993.03,1992.82,1992.64,1992.48,1992.36,1992.29,1992.3,1992.38,1992.55,1992.81,1993.15,1993.58,1994.09,1994.68,1995.37,1996.14,1997,1997.96,1999.02,2000.19,2001.47,2002.88,2004.43,2006.13,2005.82,2004.67,2003.85,2003.23,2002.75,2002.37,2002.06,2001.81,2001.61,2001.44,2001.3,2001.18,2001.07,2000.99,2000.91,2000.84,2000.79,2000.73,2000.69,2000.65,2000.61,2000.57,2000.54,2000.52,2000.49,2000.47,2000.45,2000.43,2000.41,2000.39,2000.38,2000.37,2000.36,2000.35,2000.34,2000.32,2000.31,2000.3,2000.28,2000.27,2000.26,2000.25,2000.24,2000.23,2000.22,2000.21,2000.2,2000.2,2000.19,2000.19,2000.18,2000.18,2000.18,2000.17,2000.17,2000.17,2000.17,2000.17,2000.17,2000.17,2000.17,2000.17,2000.17,2000.18,2000.19,2000.21,2000.24,2000.3,2000.42,2000.69,2001.5,2000.1,1999.24,1998.78,1998.69,1998.95,1999.59,2000.68,2001.01,2000.53,2000.35,2000.27,2000.23,2000.2,2000.19,2000.18,2000.17,2000.17,2000.17,2000.17,2000.17,2000.17,2000.17,2000.17,2000.18,2000.18,2000.18,2000.19,2000.19,2000.2,2000.2,2000.21,2000.22,2000.23,2000.24,2000.25,2000.27,2000.28,2000.3,2000.33,2000.35,2000.38,2000.42,2000.45,2000.49,2000.52,2000.53,2000.54,2000.54,2000.53,2000.51,2000.49,2000.47,2000.45,2000.44,2000.43,2000.42,2000.42,2000.41,2000.41,2000.41,2000.41,2000.41,2000.41,2000.42,2000.42,2000.42,2000.43,2000.43,2000.43,2000.44,2000.45,2000.46,2000.48,2000.5,2000.52,2000.55,2000.59,2000.63,2000.69,2000.75,2000.82,2000.91,2001.03,2001.24,2001.6,2002.36,2001.56,2000.36,1999.48,1998.86,1998.47,1998.32,1998.38,1998.67,1999.18,1999.96,2001.02,2002.45,2001.51,2001,2000.72,2000.55,2000.44,2000.37,2000.32,2000.28,2000.25,2000.23,2000.22,2000.2,2000.19,2000.18,2000.17,2000.17,2000.16,2000.16,2000.15,2000.15,2000.14,2000.14,2000.13,2000.13,2000.13,2000.12,2000.12,2000.12,2000.12,2000.11,2000.11,2000.11,2000.11,2000.11,2000.1,2000.1,2000.1,2000.1,2000.1,2000.1,2000.1,2000.1,2000.09,2000.09,2000.09,2000.09,2000.09,2000.09,2000.09,2000.09,2000.09,2000.09,2000.09,2000.09,2000.09,2000.09,2000.08,2000.08,2000.08,2000.08,2000.08,2000.08,2000.08,2000.08,2000.08,2000.08,2000.09,2000.08,2000.09,2000.09,2000.09,2000.09,2000.09,2000.09,2000.09,2000.09,2000.09,2000.09,2000.09,2000.1,2000.1,2000.1,2000.1,2000.1,2000.1,2000.1,2000.1,2000.1,2000.1,2000.1,2000.1,2000.1,2000.1,2000.1,2000.1,2000.1,2000.1,2000.1,2000.1,2000.1,2000.1,2000.1,2000.1,2000.1,2000.1,2000.1,2000.1,2000.1,2000.09,2000.09,2000.09,2000.1,2000.1,2000.1,2000.1,2000.1,2000.1,2000.1,2000.1,2000.1,2000.1,2000.11,2000.11,2000.11,2000.11,2000.11,2000.11,2000.11,2000.11,2000.11,2000.11,2000.11,2000.11,2000.11,2000.1,2000.1,2000.1,2000.1,2000.1,2000.09,2000.09,2000.09,2000.09,2000.09,2000.08,2000.08,2000.08,2000.08,2000.08,2000.08,2000.07,2000.07,2000.07,2000.07,2000.07,2000.07,2000.07,2000.07,2000.07,2000.07,2000.07,2000.07,2000.06,2000.06,2000.06,2000.06
2002.69,2003.19,2003.84,2004.68,2005.84,2006.06,2004.4,2002.89,2001.52,2000.27,1999.14,1998.12,1997.2,1996.39,1995.69,1995.09,1994.6,1994.23,1993.98,1993.82,1993.72,1993.58,1993.38,1993.15,1992.97,1992.87,1992.89,1993.02,1993.26,1993.59,1994.01,1994.52,1995.11,1995.8,1996.58,1997.44,1998.41,1999.48,2000.66,2001.96,2003.38,2004.95,2006.67,2005.47,2004.44,2003.68,2003.11,2002.66,2002.31,2002.02,2001.78,2001.59,2001.43,2001.29,2001.18,2001.08,2001,2000.92,2000.86,2000.8,2000.75,2000.71,2000.67,2000.63,2000.59,2000.56,2000.54,2000.51,2000.49,2000.46,2000.45,2000.43,2000.41,2000.4,2000.39,2000.38,2000.37,2000.36,2000.35,2000.34,2000.32,2000.3,2000.29,2000.27,2000.26,2000.24,2000.23,2000.22,2000.21,2000.2,2000.2,2000.19,2000.19,2000.18,2000.18,2000.18,2000.17,2000.17,2000.17,2000.17,2000.17,2000.16,2000.17,2000.17,2000.17,2000.17,2000.18,2000.19,2000.21,2000.25,2000.31,2000.45,2000.81,2000.99,1999.66,1998.83,1998.39,1998.3,1998.55,1999.17,2000.21,2001.27,2000.6,2000.37,2000.28,2000.23,2000.2,2000.19,2000.18,2000.17,2000.17,2000.17,2000.17,2000.17,2000.17,2000.17,2000.17,2000.17,2000.18,2000.18,2000.18,2000.19,2000.19,2000.2,2000.2,2000.21,2000.22,2000.23,2000.24,2000.25,2000.26,2000.28,2000.3,2000.32,2000.34,2000.36,2000.39,2000.41,2000.43,2000.44,2000.45,2000.45,2000.44,2000.44,2000.43,2000.42,2000.41,2000.4,2000.39,2000.39,2000.39,2000.39,2000.39,2000.39,2000.39,2000.39,2000.39,2000.39,2000.4,2000.4,2000.41,2000.41,2000.41,2000.42,2000.44,2000.45,2000.47,2000.5,2000.54,2000.58,2000.63,2000.7,2000.77,2000.85,2000.94,2001.05,2001.2,2001.45,2001.93,2002.37,2000.85,1999.7,1998.85,1998.25,1997.88,1997.73,1997.79,1998.07,1998.57,1999.31,2000.34,2001.7,2001.83,2001.13,2000.78,2000.58,2000.46,2000.38,2000.32,2000.28,2000.25,2000.23,2000.21,2000.2,2000.19,2000.18,2000.17,2000.16,2000.16,2000.15,2000.15,2000.14,2000.14,2000.13,2000.13,2000.13,2000.12,2000.12,2000.12,2000.12,2000.12,2000.11,2000.11,2000.11,2000.11,2000.1,2000.1,2000.1,2000.1,2000.1,2000.1,2000.1,2000.1,2000.09,2000.09,2000.09,2000.09,2000.09,2000.09,2000.09,2000.09,2000.09,2000.09,2000.09,2000.09,2000.09,2000.08,2000.08,2000.08,2000.08,2000.08,2000.08,2000.08,2000.08,2000.08,2000.08,2000.08,2000.08,2000.08,2000.08,2000.09,2000.09,2000.09,2000.09,2000.09,2000.09,2000.09,2000.09,2000.09,2000.09,2000.1,2000.1,2000.1,2000.1,2000.1,2000.1,2000.11,2000.11,2000.11,2000.11,2000.11,2000.11,2000.11,2000.1,2000.1,2000.1,2000.1,2000.1,2000.1,2000.1,2000.1,2000.1,2000.1,2000.1,2000.1,2000.1,2000.1,2000.09,2000.09,2000.09,2000.09,2000.09,2000.09,2000.09,2000.09,2000.09,2000.09,2000.09,2000.1,2000.1,2000.1,2000.1,2000.1,2000.1,2000.1,2000.1,2000.1,2000.1,2000.1,2000.1,2000.1,2000.1,2000.1,2000.1,2000.1,2000.1,2000.1,2000.1,2000.09,2000.09,2000.09,2000.09,2000.09,2000.09,2000.08,2000.08,2000.08,2000.08,2000.08,2000.08,2000.08,2000.07,2000.07,2000.07,2000.07,2000.07,2000.07,2000.07,2000.07,2000.07,2000.07,2000.07,2000.07,2000.07,2000.06,2000.06,2000.06,2000.06
2002.58,2003.05,2003.63,2004.4,2005.42,2006.7,2005.01,2003.48,2002.09,2000.83,1999.69,1998.66,1997.74,1996.94,1996.25,1995.68,1995.26,1995.03,1995.03,1998.1,1997.58,1997.41,1997.57,1998.09,1994.02,1993.67,1993.55,1993.6,1993.8,1994.11,1994.52,1995.03,1995.62,1996.31,1997.1,1997.97,1998.95,2000.03,2001.22,2002.54,2003.98,2005.57,2006.37,2005.1,2004.19,2003.51,2002.99,2002.57,2002.24,2001.97,2001.75,2001.57,2001.42,2001.29,2001.18,2001.09,2001.01,2000.94,2000.88,2000.83,2000.78,2000.73,2000.69,2000.66,2000.62,2000.59,2000.56,2000.53,2000.51,2000.49,2000.47,2000.45,2000.44,2000.43,2000.43,2000.42,2000.42,2000.41,2000.4,2000.38,2000.36,2000.34,2000.31,2000.29,2000.27,2000.25,2000.24,2000.22,2000.21,2000.2,2000.2,2000.19,2000.19,2000.18,2000.18,2000.17,2000.17,2000.17,2000.17,2000.16,2000.16,2000.16,2000.16,2000.16,2000.17,2000.17,2000.18,2000.19,2000.21,2000.25,2000.31,2000.46,2000.82,2000.93,1999.61,1998.78,1998.35,1998.26,1998.51,1999.12,2000.16,2001.31,2000.6,2000.37,2000.28,2000.23,2000.2,2000.18,2000.17,2000.17,2000.17,2000.16,2000.16,2000.16,2000.16,2000.17,2000.17,2000.17,2000.17,2000.17,2000.18,2000.18,2000.19,2000.19,2000.2,2000.2,2000.21,2000.22,2000.23,2000.24,2000.25,2000.26,2000.28,2000.29,2000.31,2000.32,2000.34,2000.35,2000.37,2000.38,2000.38,2000.39,2000.39,2000.39,2000.38,2000.38,2000.37,2000.37,2000.37,2000.37,2000.36,2000.36,2000.36,2000.37,2000.37,2000.37,2000.37,2000.37,2000.38,2000.38,2000.39,2000.39,2000.4,2000.41,2000.43,2000.45,2000.48,2000.51,2000.56,2000.62,2000.7,2000.8,2000.91,2001.04,2001.17,2001.31,2001.47,2001.73,2002.29,2001.89,2000.42,1999.3,1998.46,1997.87,1997.51,1997.36,1997.42,1997.7,1998.19,1998.92,1999.92,2001.24,2002.12,2001.24,2000.83,2000.61,2000.47,2000.38,2000.33,2000.28,2000.25,2000.23,2000.21,2000.2,2000.18,2000.18,2000.17,2000.16,2000.16,2000.15,2000.14,2000.14,2000.14,2000.13,2000.13,2000.13,2000.12,2000.12,2000.12,2000.12,2000.11,2000.11,2000.11,2000.11,2000.11,2000.1,2000.1,2000.1,2000.1,2000.1,2000.1,2000.1,2000.09,2000.09,2000.09,2000.09,2000.09,2000.09,2000.09,2000.09,2000.09,2000.09,2000.08,2000.09,2000.09,2000.08,2000.08,2000.08,2000.08,2000.08,2000.08,2000.08,2000.08,2000.08,2000.08,2000.08,2000.08,2000.08,2000.08,2000.08,2000.08,2000.09,2000.09,2000.09,2000.09,2000.09,2000.09,2000.09,2000.1,2000.1,2000.1,2000.1,2000.1,2000.11,2000.11,2000.11,2000.11,2000.11,2000.11,2000.11,2000.11,2000.11,2000.11,2000.11,2000.1,2000.1,2000.1,2000.1,2000.1,2000.1,2000.1,2000.09,2000.09,2000.09,2000.09,2000.09,2000.09,2000.09,2000.09,2000.09,2000.09,2000.09,2000.09,2000.09,2000.09,2000.09,2000.09,2000.09,2000.09,2000.09,2000.09,2000.09,2000.09,2000.1,2000.1,2000.1,2000.1,2000.1,2000.1,2000.1,2000.1,2000.1,2000.1,2000.09,2000.09,2000.09,2000.09,2000.09,2000.09,2000.09,2000.09,2000.09,2000.08,2000.08,2000.08,2000.08,2000.08,2000.08,2000.08,2000.08,2000.08,2000.07,2000.07,2000.07,2000.07,2000.07,2000.07,2000.07,2000.07,2000.07,2000.07,2000.07,2000.07,2000.07,2000.07,2000.06,2000.06,2000.06
