2000.51,2000.55,2000.68,2000.62,2000.9,2001.77,2000.78,2000.63,2000.81,2002.9,1995.64,2003.94,2000.74,2000.57,2000.53,2000.5,2000.48,2000.46,2000.45,2000.44,2000.43,2000.43,2000.43,2000.45,2000.52,1998.71,2001.54,2000.54,2001.12,2002.97,1996.68,2003.81,2000.68,2000.45,2000.42,2000.42,2000.43,2000.42,2000.62,2000.89,2000.51,2000.58,2001.5,2002.4,2003.7,2002.11,1993.28,1992.05,1997.66,2002.24,2001.82,2000.93,2002.67,2001.33,2000.59,2000.6,2000.58,1998.95,2000.77,2001.88,2000.79,2000.53,2000.53,2000.54,2000.75,2001.69,1997.67,2001.22,1998.53,2000.51,2000.53,2000.57,2000.55,2001.28,2002.82,2000.91,1998.9,2001.26,2002.07,2001.86,2001.3,2001.81,2002.82,2004.6,2008.23,2011.91,2019.6,2006.62,2002,2000.03,2002.9,2008.62,2015.06,2001.61,2001.47,2006.02,2006.69,2004.19,2008.3,2002.5,2004.68,2004.28,2001.94,2002.01,2001.03,2000.89,2001.14,2003.41,2001.25,2001.62,2001.58,2002.82,2006.15,2002.48,2002.91,2009.73,2004.86,2002.35,2001.71,2001.2,1997.47,2002.16,2002.22,2001.08,2001.12,2001.02,2001.11,2000.61,2000.49,2000.56,1997.79,2000.81,2000.7,2000.97,2001.31,2001.54,2000.72,2000.77,2000.97,2001.48,2001.02,2000.58,2000.95,2001.43,2000.81,2001.07,2000.63,2000.71,2001.16,2001.73,2004.09,1997.28,1999.48,2002.81,2003.28,1996.05,2000.21,2001.42,1998.44,2001.23,2000.9,2000.98,2000.97,2000.87,1998.93,2001.01,2000.86,2000.92,2000.97,2000.95,2000.87,2000.89,2000.91,2000.99,2001.37,2001,2001.02,2001.1,2001.15,2001.33,2003.18,1996.89,1999.56,2001.94,2001.47,2001.65,1999.34,2002.73,2001.87,2002.42,2000.06,2001.92,2002.17,2002.5,2002.81,2002.89,2002.59,2002.25,2003.24,2002.67,2002.6,2002.53,2002.42,2003.25,2002.58,2002.64,2002.87,2003.24,2003.42,2003.63,2001.91,2003.33,2003.47,2003.66,2003.86,2004.14,2004.33,2004.82,2004.96,2005.29,2005.54,2004.47,2006.34,2006.5,2006.89,2007.34,2007.82,2008.36,2008.99,2009.54,2010.21,2010.94,2011.71,2012.59,2013.6,2014.63,2016.23,2017.1,2018.62,2020.51,2023.24,2025.21,2030.03,2034.11,2037.09,2037.96,2037.49,2036.72,2031.2,2031.44,2039.66,2041.19,2042.75,2044.4,2046.2,2048.71,2042.01,2039.9,2050.29,2053.41,2053.82,2054.32,2054.84,2055.62,2054.56,2054.38,2041.22,2038.77,2046.58,2049.39,2046.72,2044.27,2042.1,2028.52,2038.88,2035.85,2034.22,2028.18,2022.59,2027.54,2026.48,2024.32,2022.56,2021.03,2019.59,2018.88,2011.02,2014.14,2015.81,2013.01,2004.46,2004.83,2012.51,2005.66,2007.21,2009.9,2008.76,2006.81,2007.72,2007.13,2006.66,2006.28,2005.95,2005.58,2005.32,2004.99,2004.76,2003.95,2004.72,2004.33,2003.81,2001.23,2003.43,2003.36,2003.62,2002.99,2003.1,2003.52,2002.68,2002.47,2002.32,2002.17,2002.65,2001.51,2001.96,2001.96,2001.75,2001.63,2001.56,2001.52,2001.64,2001.59,2001.41,2001.35,2001.57,2001.14,2001.48,2001.57,2001.32,2003.72,2001.85,2001.05,2000.94,2000.9,2000.95,2000.91,2000.93,2001.13,2001.26,2005.3,1994.89,1995.41,2002.65,2001.18,2001.5,2003.72,2002.86,2001.43,2000.92,2000.85,1998.27,2002.78,2000.62,2000.56,2000.52,2000.5,2000.49,2000.49,2000.62,2000.95,2000.64,2000.71,2000.65,2001.08,1999.84,2000.68,2000.67,2000.84
2000.54,2000.55,2000.66,1998.69,2001.17,1997.49,2001.77,2000.77,2000.83,2002.09,1997.46,1999.53,2000.84,2000.66,2000.6,2000.62,2000.54,2000.48,2000.46,2000.45,2000.45,2000.45,2000.49,2000.7,2000.9,2000.71,2000.57,2000.47,2000.53,2000.81,2001.19,2000.78,2000.5,2000.46,2000.92,2000.45,2000.39,2000.42,2002.85,1996.8,2000.85,2000.7,2000.7,2001.05,2002.02,2005.94,2001.13,1999.88,2006.42,2005.19,2001.34,2000.79,2000.88,2000.74,2000.51,2000.47,2000.45,2000.46,2000,2000.63,2000.7,2000.55,2001.83,2000.68,2001.25,2003.57,1995.65,2001.28,2000.63,2000.47,2000.45,2000.45,2000.5,2001.56,2001.59,2001.1,2000.7,2002,1999.18,2001.09,2001.22,2001.67,2002.63,2005.03,2008.89,2005.11,2009.95,2010.66,2015.34,2015.12,2014.63,2006.17,2009.42,2004,2003.8,2010.3,2012.31,2013.26,2010.52,2007.53,2005.1,2003.21,2001.73,2002.08,2001.18,2000.98,2000.85,2000.89,2001.2,2000.01,2003.14,2002.27,2001.79,2011.47,2003.29,2001.47,2009.29,2003.23,2001.69,1999.62,1996.07,2002.48,2000.88,1998.15,2000.8,2000.55,2000.57,1998.7,2000.53,2000.56,1999.21,2000.67,1999.26,2005.2,1992.82,2001.28,2000.96,2000.8,2001.18,1997.31,2002.67,2000.6,2000.55,2000.58,1998.63,2000.75,2000.7,2000.7,2000.75,2000.99,2001.2,2002.51,2002.36,2001.75,2000.12,2004.23,1999.72,2001.35,2002.07,2001.35,2000.53,2000.07,2000.16,2002.05,2001,2000.93,2000.8,2000.81,2001.06,2001.4,2000.9,2001,2001,2001.08,2000.5,2001.08,2001.11,2000.63,1999.59,2001.29,2000.84,2000.24,2002.05,2001.44,2001.32,2001.36,2001.53,2001.67,2001.98,2001.75,2002.33,2001.71,2001.8,2001.97,1998.46,2000.51,2002.14,2002.47,2002.25,2002.25,2003.16,2003.07,2004.78,2003.5,2002.6,2002.65,2003.65,2002.27,2002.42,2003.41,2003.22,2003.22,2003.47,2002.49,2003.76,2003.19,2004.58,2005.3,2004.88,2005.08,2005.61,2004.54,2006.06,2006.22,2006.57,2007,2007.47,2007.97,2008.49,2009.04,2009.64,2010.34,2011.39,2011.99,2012.67,2013.64,2015.7,2016.08,2017.45,2019.48,2022.73,2028.03,2035.56,2028.11,2025.9,2015.14,2035.08,2034.88,2025.47,2025.68,2035.65,2036.89,2035.08,2038.79,2040.33,2041.68,2044.86,2042.78,2045.67,2045.56,2045.97,2042.24,2041.95,2035.04,2042.71,2048.67,2042.05,2040.65,2037.49,2035.38,2044.46,2039.54,2036.9,2035.32,2031.49,2031.45,2029.94,2028.88,2028.42,2025.75,2018.78,2016.69,2020.95,2019.21,2018.04,2017.15,2017.66,2015.71,2014.56,2014.98,2006.08,2005.82,2013.46,2012.19,2010.58,2009.03,2008.26,2007.85,2005.17,2006.85,2006.39,2006.02,2004.22,2005.42,2004.43,2005.33,2004.51,2004.29,2004.06,2003.84,2003.64,2003.48,2003.31,2001.67,2003.04,2002.93,2003.8,1998.28,2003.3,2001.67,2002.52,2002.13,2002.06,2002,2002.17,1999.39,2001.73,2001.6,2001.52,2001.49,2000.84,1999.49,2001.37,2001.3,1999.62,2001.34,2001.21,2001.21,2001.46,1997.46,2000.23,2001.09,2000.93,2000.92,2001.78,2001.61,2001.21,2001.44,2002.49,2002.17,1999.79,2000.36,2001.82,2001.35,2003.32,1994.94,1992.05,2003.44,2001.26,2000.93,2000.99,2000.81,2000.65,2000.58,2000.54,2000.51,2000.49,2000.48,2000.49,2000.49,2000.49,2000.74,2000.62,2000.52,2000.57,2000.63,2000.78,2001.11
2000.58,2000.6,2000.67,2000.77,2001.42,2001.03,2000.86,2000.76,2000.81,2001.09,2001.45,2001.34,2001.15,2000.9,2000.77,1998.44,2001.01,2000.51,2000.48,2000.47,2000.53,2000.57,2001.4,2000.72,1997.13,2000.91,2000.59,2000.45,2000.46,2000.49,2000.52,2000.49,2000.45,2000.48,2002.13,2000.45,2000.39,2000.4,2000.52,1999.14,2000.58,2000.54,2000.58,2000.77,2001.16,2001.96,2003.14,2003.44,2002.39,2001.43,2000.89,2000.64,2000.68,1999.92,2000.53,2000.49,2000.56,2000.5,2000.45,2000.56,2000.66,2000.63,2000.77,2000.74,2002.7,1995.3,1995,2002.31,2000.67,2000.48,2000.45,2000.45,2000.48,2000.53,2000.6,2000.61,2000.72,1999.63,2001.48,2001.91,2001.18,2001.6,2002.76,2008.14,1998.38,1994.8,1997.83,2009.13,2008.94,2007.41,2006.71,2006.4,2006.05,2007.5,2010.2,2007.71,2001.36,2000.54,2003.93,2012.96,2006.39,2004.16,2002.51,2000.51,2000.8,2001.92,2000.86,2000.84,2001.34,2001.7,2001.91,2002.14,2007,2000.87,1993.87,1993.52,1999.72,2004.97,2002.01,2000.92,2002.32,2001.08,2000.77,2000.89,2000.76,2000.54,2000.49,2000.67,2000.48,1999.01,2000.55,2000.77,2001.46,2001.66,1995.63,1999.64,2001.03,2000.64,2000.7,2001.38,2001.24,2000.95,2000.59,2000.53,2000.56,2000.66,1998.58,2001.6,2000.68,2000.74,2000.86,2000.96,2000.96,2001.03,2001.84,2002.67,2001.64,2000.93,2000.8,2000.73,2000.86,2000.9,2000.81,2001.11,2000.78,2000.76,2000.77,2000.8,2000.89,2000.98,2000.97,1999.64,2002.38,2001.08,2001.88,2001.77,2001.32,2000.41,2000.44,2001.45,2001.93,2001.62,2001.41,2001.49,2001.84,2001.32,2001.33,2001.44,1999.27,2001.69,2002.29,2001.57,2001.62,2001.72,2001.86,2001.92,2001.89,2002.05,2002.16,2002.51,2001.02,2001.99,2002.81,2002.74,2002.81,2002.88,2002.97,2001.59,2002.95,2003.2,2003.38,2003.15,2003.31,2003.6,2003.73,2002.97,2005.67,2005.21,2004.59,2004.76,2005.16,2005.48,2005.74,2005.99,2006.32,2006.18,2007.24,2004.48,2008.36,2008.7,2009.22,2010.27,2010.77,2011.27,2011.89,2012.74,2013.78,2013.48,2016.53,2018.85,2007.64,2001.4,2007.35,2014.71,2012.55,2014.51,2020.68,2032.9,2028.88,2029.1,2033.47,2032.39,2033.14,2034.12,2033.97,2036.22,2037.32,2038.26,2038.8,2039.27,2039.66,2040.1,2041.1,2039.21,2041.5,2033.61,2051.85,2030.83,2026.28,2024.51,2029.8,2037.11,2032.84,2030.88,2029.37,2027.88,2026.49,2025.23,2024.46,2022.54,2021.21,2019.94,2019.27,2017.6,2016.55,2015.64,2014.66,2013.82,2013.2,2013.24,2016.42,2015.78,2011.45,2009.92,2009.05,2008.36,2007.83,2007.63,2007.49,2008.2,2006.27,2005.88,2005.96,2005.14,2004.9,2005.06,2004.48,2004.11,2003.9,2003.74,2004.2,2003.46,2003.22,2003.08,2002.92,2002.84,2003.15,2005.57,2001.36,2002.67,2002.45,2002.33,2002.01,2001.98,2001.98,2001.84,2001.66,2001.56,2001.49,2001.43,2001.39,2001.36,2001.3,2001.27,2001.61,2001.29,2001.12,2001.09,2001.29,2002.82,2001.36,2001.02,2001,2000.94,2002.41,1998.37,2001.49,1997.69,2000.74,2001.84,2002.14,2001.6,2001.23,2001.45,2004.22,1997.22,1992.14,2005.78,2001.77,2001.2,2000.98,2000.84,2000.72,2000.64,2000.59,2000.55,2000.51,2000.51,2000.55,2000.53,2000.48,2000.48,2000.5,2000.53,2000.59,2000.7,2001.03,1999.13
2000.64,2000.69,2001.62,2002.4,2001.07,2000.84,2000.84,2000.85,2000.91,2001.1,2001.78,2005.99,2005.34,2001.8,2001,2001.02,2000.7,2000.54,2000.51,2000.56,2001.02,2001.41,2001.18,2001.21,2002.71,2000.72,2000.5,2000.45,2000.45,2000.47,2000.49,2000.47,2000.71,2001.24,2000.62,2000.42,2000.39,2000.39,2000.43,1998.49,2000.48,2000.48,2000.53,2000.61,2000.76,2000.99,2001.21,2001.26,2001.08,2000.85,2000.66,2000.54,2000.49,2000.48,2000.46,2000.89,1998.67,1999.3,2000.59,1998.99,2001.63,2000.53,2000.54,2000.76,2001.97,1997.25,1997.74,2001.8,2000.67,2000.55,2000.55,2000.51,2001.16,2000.54,2000.54,2000.68,2002.27,2001.29,2001.38,2001.44,2001.19,2001.53,2002.72,2001.01,1996.12,1989.67,1994.74,2004.45,2006.11,2004.8,2004.23,2004.29,2005.08,2008.12,2008.69,1997.84,1992.37,1991.31,1994.59,2002.69,2010.64,1999.86,2003.23,2001.74,2001.39,2001.12,2000.9,2000.93,2000.88,2000.97,2000,2002.28,2004.93,1999.6,1992.57,1992.28,1998.54,2005.4,2002.52,2002.44,2001.26,2000.84,2002.26,1999.41,2000.89,2000.71,2000.52,2000.63,2000.54,2000.52,2000.54,2000.53,2000.77,2001.88,2002.08,2002.6,2000.95,2000.8,2001.89,2001.35,2000.68,1997.45,2000.67,2000.53,2000.53,2000.6,2001.49,2000.88,2000.73,2001.83,2000.67,2000.68,2000.7,2000.74,2000.82,2000.88,2000.83,2000.76,2000.72,2000.7,2000.68,2000.97,1999.67,2000.72,2000.78,2000.77,2000.79,2000.83,2000.95,2001.42,2000.97,2001.53,2001.34,2001.16,2000.56,2002.1,1999.46,2002.1,2001.54,2001.33,2001.71,2001.28,2000.37,2002.11,2001.78,2001.35,2001.29,2001.43,2001.39,2001.4,2001.43,2001.47,2001.53,2001.63,2002.33,2002.11,2001.8,2001.89,2002.05,2000.52,2001.96,2005.62,2003.93,2003.53,2003.78,2004.18,2004.33,2003.2,2003.05,2003.71,2001.71,2003.11,2003.22,2003.77,2003.81,2004.34,2003.93,2004.31,2004.42,2004.53,2004.81,2005.14,2003.51,2006.5,2006.04,2006.57,2006.91,2007.02,2005.53,2006.01,2009.02,2005.83,2008.98,2010.92,2011.47,2012.07,2012.86,2014.13,2012.36,2018.5,2009.77,2003.14,2009.45,2006.47,2004.1,2005.87,2011.53,2021.56,2028.42,2031.59,2029.55,2029.37,2029.38,2030.39,2024.73,2032.01,2032.48,2033.26,2034.32,2034.26,2034.51,2034.74,2034.93,2035.03,2035.15,2036.29,2038.25,2032.7,2023.11,2021.45,2026.46,2035.25,2029.34,2027.41,2026.11,2024.89,2021.8,2022.57,2021.38,2020.23,2019.13,2018.09,2017.07,2016.09,2015.17,2014.29,2013.56,2012.77,2012.06,2011.56,2011.15,2010.55,2009.74,2009.01,2008.38,2007.96,2008.06,2008.56,2006.05,2005.36,2004.1,2006.04,2005.51,2004.95,2004.65,2004.49,2004.24,2003.99,2003.79,2003.65,2002.52,2003.47,2003.23,2002.82,2002.9,2002.77,2002.68,2002.69,2000.42,2002.35,2001.19,2000.99,2002.04,2002.48,2001.71,2001.78,2001.65,2001.56,2001.47,2001.41,2001.36,2001.38,2001.53,2001.63,2002.42,2001.25,2001.09,2001.06,2001.09,2001.17,2000.99,2001.15,2000.56,2001.1,2001.23,2001.11,2001.08,2001.7,2003.17,1994.52,2004.14,2002.51,2002.07,2002.75,2000.25,2001.16,2001.6,1995.21,2003.99,2001.94,2001.41,2001.11,2000.88,2000.74,2000.84,2001.43,2000.63,2000.62,2001.84,2001.52,2000.54,2000.5,2000.53,2000.64,2000.19,2001.19,2002.34,2004.59
2000.77,2000.95,2001.59,2001.32,2001.08,2001.06,2001.06,2001.09,2001.16,2001.49,2005.58,1995.57,1995.35,2004.02,2003.72,2000.94,2000.69,2000.58,2000.54,2000.35,2000.88,2000.55,2000.52,2000.55,2000.56,2000.51,2000.49,2000.48,2000.48,2001,2000.03,2000.57,2001.08,1997.86,2001.2,2000.43,2000.4,2000.4,2000.41,2000.46,2000.47,2000.5,2000.92,2000.58,2000.61,2000.7,2000.83,2001.06,2000.85,2000.65,2000.55,2000.51,2000.49,2000.55,2000.53,2000.52,2000.53,2000.5,1998.92,2002.43,1999.01,2000.93,2000.54,1998.19,2000.94,2001.5,2001.49,1998.85,2000.68,2001.72,2002.06,2000.67,2000.92,2000.57,2000.57,1999.87,2001.8,2002.25,2004.75,2001.57,2001.26,2001.59,2002.45,2005.67,2000.88,1996.49,1999.76,2009.67,2005.48,2004.78,2003.26,2003.69,2006.62,2010.03,2004.07,1993.44,1986.99,1987.18,1990.35,1998.1,2012.03,2004.59,2002.92,2001.91,2000.59,2001.82,2000.95,1999.77,2001.05,2000.44,2001.13,2001.96,2004.55,2005.85,1998.08,1997.79,2004.76,2005.31,2000.54,1996.34,2002.68,2000.89,2001.41,1997.23,1998.6,2000.81,2000.16,1998.13,2000.6,2000.56,1999.97,2000.47,2000.56,2000.83,2001.01,2002.38,2000.79,2001,1999.67,2001.02,2000.76,2000.87,1998.83,2000.57,2000.52,2000.53,2000.55,2000.57,2000.68,2001.28,2000.61,2000.61,2000.62,2000.64,2000.66,2000.72,2000.89,2001,2001,2000.71,2000.67,2000.83,2001.64,2001.13,2000.84,2000.89,2000.87,2000.95,2001.1,2001.03,2001.01,2001.1,2001.29,2001.38,2001.39,2001.64,2001.17,2002.19,2001.27,2001.28,2001.37,2001.42,2001.29,2001.38,2001.36,2001.65,2001.51,2001.33,2001.32,2001.36,2001.48,2001.45,2001.47,2001.59,2000.46,2003.77,2001.96,2003.39,2002.72,2002.33,2002.66,2005.06,2003.52,2004.38,2008.97,2005.88,2005.03,2004.52,2004.29,2003.27,2003.05,2002.48,2003.19,2001.78,2004,2003.99,2003.76,2003.99,2004.23,2004.35,2004.61,2004.9,2005.4,2005.54,2005.75,2006.08,2006.48,2007.42,2007.95,2007.77,2008.25,2009.63,2009.68,2009.82,2010.93,2011.68,2012.04,2013.24,2014.33,2019.68,2023.56,2008.5,2008.21,2002.36,1999.8,2001.34,2006.62,2016.06,2030.93,2024.11,2026.46,2026.03,2027.72,2026.96,2028.06,2028.08,2028.59,2029.61,2028.03,2030.61,2030.55,2030.71,2026.09,2030.58,2027.78,2030.69,2031.56,2036.25,2026.72,2025.1,2030.32,2029.99,2026.01,2024.47,2018.39,2022.39,2021.71,2020.31,2019.25,2018.35,2016.63,2016.56,2008.38,2015.16,2014.01,2013.27,2008.69,2012.16,2011.17,2010.59,2010.2,2008.34,2008.92,2008.35,2007.86,2007.46,2007.12,2006.92,2006.73,2006.49,2006.65,2005.58,2003.32,2004.8,2004.48,2004.41,2004.37,2004.32,2004.24,2003.53,2002.32,2003.35,2003.18,2003.11,2002.93,2002.79,2002.69,2002.58,2002.44,2002.26,2002.3,2002.36,2001.99,2002.26,2002.68,2002.1,2002.29,2001.87,2000.52,2001.4,2001.34,2001.71,2000.88,2001.64,2002.13,2001.25,2001.08,2001.12,2001.06,2000.98,2000.93,2000.92,2000.91,2000.89,2001.21,2001.41,2001.06,2001.69,2001.2,1995.09,1997.71,2001.16,2002.51,2002.12,2001.37,2002.62,2001.74,1995.85,1999.87,2004.55,2002.71,2001.81,2001.21,2000.89,2001.08,2000.42,2001.19,2000.7,1998.65,2000.89,2000.59,2000.56,2000.65,2000.82,2001,2001.64,2000.12,2002.22
2000.27,2001.18,2001.56,2002,2002,2001.67,2001.55,2001.58,2001.7,2001.94,2004.72,1994.86,1995.12,2003.77,1999.62,2001.79,2000.97,2000.66,2000.57,2000.55,2000.52,2000.5,2000.52,2000.59,2000.8,2000.56,2000.54,2000.55,2000.55,2000.6,2001.07,2000.59,2000.27,1999.6,2000.59,2000.43,2000.41,2000.42,2000.45,2000.49,2000.6,2000.7,2001.18,2000.6,2000.59,2001.48,2001.21,1997.33,2003.01,2000.62,2000.56,2000.59,2000.65,2000.67,2001.15,2000.72,2000.61,2000.53,2000.61,2000.66,2000.6,2000.5,2000.56,2000.62,2000.62,2000.15,2000.61,2000.59,2000.73,1999.57,1997.56,2000.78,2000.52,2000.51,2000.59,2000.98,2002.43,1994.41,1996.44,2002.36,1999.42,2001.51,2001.63,2002.96,2005.57,2002.35,2005.18,2004.73,1999.04,1999.76,2002.81,2003.46,2001.27,2001.93,2003.83,1993.32,1988.18,1987.24,1990.44,1998.67,2004.1,2005.79,2003.08,2002.03,2003.33,2001.52,2000.97,2000.88,2000.83,2000.89,2000.99,2001.17,2004.2,2003.37,2005.89,2006.03,2003.47,2002.19,2003.28,1999.51,1997.74,2000.99,2000.82,2001.41,2001.11,2000.64,1998.85,2000.56,2000.44,1998.84,2000.46,2000.46,2000.6,1999.72,2002.91,2000.96,2001.47,2002.14,2003.06,2002.2,2001.1,2000.79,2000.79,2000.54,2000.51,2000.51,2000.52,2000.57,2001.47,2000.78,2000.58,2000.58,2000.59,2000.6,2000.62,2000.69,2000.99,1998.45,2000.96,2000.74,2000.76,2000.72,2000.73,2000.78,2001.41,1999.88,2001.16,2001.66,1998.4,2001.7,2001.14,2001.32,2002.4,2000.51,2001.79,2001.82,2001.84,2001.81,2001.33,2001.34,2002.55,2001.43,2001.28,2001.29,2001.41,1998.87,2002.58,2001.47,2001.32,2001.41,1998.96,2001.7,2001.45,2001.63,2002.33,2001.72,2002.17,2000.01,2004.34,2002.45,2002.82,2005.43,2004.79,2003.29,1996.83,1998.08,2007.43,2000.78,1998.81,2004.12,2002.99,2003.02,2003.04,2003.2,2003.31,2003.43,2003.59,2003.78,2003.99,2004.22,2004.53,2004.74,2005.01,2005.33,2005.55,2005.81,2006.14,2006.5,2006.87,2007.26,2007.69,2008.18,2008.93,2009.24,2009.81,2010.36,2011.27,2012.24,2013.85,2016.62,2022.37,2018.21,2007.43,2002.2,1999.32,2000.63,2005.77,2015.09,2026.8,2027.67,2023.68,2023.31,2022.8,2024.19,2025.38,2024.83,2025.31,2025.77,2026.28,2021.68,2025.87,2026.84,2026.98,2027.03,2027.27,2027.51,2025.57,2025.63,2032.59,2035.68,2029,2024.72,2022.93,2021.82,2020.96,2020.01,2019.13,2018.3,2017.46,2016.64,2016.5,2013.19,2015.29,2008.84,2013.28,2012.28,2011.86,2011.23,2010.46,2009.87,2009.36,2008.92,2008.32,2007.83,2007.41,2007.05,2006.9,2008.4,2007.22,2007.91,2007.27,2004.83,2005.88,2004.71,2004.33,2004.89,2003.93,2003.86,2003.68,2003.45,2003.36,2003.28,2004.54,2003.93,2003.11,2003.07,2003.08,2003.29,2002.37,2002.25,2002.69,2002.35,2001.94,2001.98,1996.74,2000.21,2002.87,2001.7,2001.48,2001.36,2001.31,2001.34,2001.47,2001.48,1999.85,2001.14,2001.12,1998.97,2002.96,2001.09,2000.95,2000.92,2000.92,2000.88,2000.87,2000.94,2001.65,1997.74,2003.49,1998.14,1999.05,2001.87,2001.58,2001.05,2001.22,2001.89,2003.88,1999.38,1996.1,2006.43,2008.73,2003.92,2001.87,2001.11,2000.49,2000.72,2000.99,2001.1,2000.95,2000.7,2000.74,2000.77,2001.2,2002.17,2002.94,2001.7,2001.26,2001.58
2002.49,2002.14,2003.54,1999.93,2001.4,2003.39,2002.64,2002.85,2002.82,2004.08,2003.08,2003.24,2002.6,2003.61,2002.14,2001.37,2001.67,2000.79,2000.62,2000.65,2000.53,2000.52,2000.65,2001.26,1998.61,2000.74,2000.72,2000.79,2000.78,2000.68,2000.58,2000.54,2000.61,2000.61,2000.48,2000.43,2000.43,2000.53,2000.26,2000.66,2001.72,2002.9,2000.7,2000.65,2000.66,2002.53,2001.28,1999.65,2001.19,2000.77,2001.55,2000.69,2000.36,2001.19,2001.87,2002.21,2001.28,2000.71,2002.09,2001.41,2000.49,2000.46,2000.49,1999.1,2000.53,2000.49,2000.49,2000.51,1999.18,2001.18,2001.11,2000.63,2000.51,2000.52,2000.6,2001.02,1999.9,1996.6,1998.73,2001.88,2001.11,2001.07,2001.3,2001.66,2002.56,2003.2,1999.67,2003.18,2003.15,2002.9,2002.25,2002.73,2004.25,2007.06,2008.64,1997.81,1992.99,1991.81,1994.83,2003.44,2012.28,2005.68,2003.29,2002.16,2001.57,2001.21,2000.99,2000.87,2000.82,2000.82,2000.95,1998.23,2001.42,2001.6,2000.34,2002.18,2001.58,2002.96,2001.51,2001.27,2001.02,2000.84,2002.32,2001.45,2001.45,2000.53,2000.97,2000.87,2000.41,2000.44,2000.46,2000.69,2001.17,2001.31,2001.27,2001.03,2002.43,2000.26,1995.97,1999.85,2000.04,2001.1,2000.7,2000.54,2000.51,2000.51,2000.53,2000.57,2001.21,2000.84,2000.58,2000.57,2000.58,2000.59,2000.61,2000.66,2000.97,1997.65,2000.91,2000.76,1999.61,2001.11,2000.72,2000.79,2001.69,1998.58,2001.29,2001.66,2003.05,2002.2,2001.43,2001.89,2001.98,2000.12,2006.15,1999.23,2003.44,2001.74,2001.49,2001.43,2001.42,2001.37,2001.38,2001.52,2001.36,2001.67,2001.51,2001.36,2002.11,2001.41,2001.74,2001.68,2001.45,2001.74,2002.03,2001.63,2001.78,1999.96,2001.91,2002.02,2002.84,2005.09,2004.38,1998.89,1992.82,1993.98,2002.67,2003.05,2000.93,2003.72,2002.92,2002.91,2003.03,2003.07,2003.18,2003.31,2003.47,2003.65,2003.87,2004.15,2003.17,2004.76,2005.01,2005,2005.85,2005.6,2005.88,2006.19,2006.5,2006.85,2007.25,2007.74,2006.34,2008.77,2009.29,2009.22,2010.73,2011.36,2012.61,2014.63,2019.64,2022.91,2011.27,2004.3,2002.89,2003.81,2008.99,2018.57,2028.77,2022.86,2021.17,2021.35,2021.4,2021.35,2022.04,2022.13,2022.5,2022.9,2023.25,2023.97,2023.87,2023.76,2023.91,2020.83,2026.05,2026.01,2016.94,2024.36,2019.03,2021.43,2023,2021.55,2020.34,2019.5,2018.8,2017.19,2017.31,2016.55,2015.87,2015.18,2014.55,2013.93,2013.29,2013.22,2012.08,2011.99,2011.54,2007.88,2010.68,2009.76,2008.84,2005.39,2007.99,2007.39,2007,2006.69,2006.76,2005.6,1999.15,2002.17,2006.03,2006.02,2005.86,2004.66,2004.19,2004.2,2003.04,2003.65,2003.49,2003.45,2003.4,2003.41,2003.55,2003.7,2003.71,2004.43,2004.27,2002.74,2002.43,2002.31,2000.29,2002.24,2001.9,2001.86,2002.9,1999.03,2001,2001.55,2001.39,2001.33,2001.3,2001.51,1998.79,2003.09,2001.38,2001.24,2001.11,2001.2,2000.31,2000.86,2001.27,2001.16,2003.01,2001.26,2000.86,2000.87,2001.28,2000.42,2001.96,2002.72,2001.92,2001.84,2000.49,2001.41,2001.18,2001.7,2003.67,2008.92,1989.93,1992.88,1996.71,2006.3,2002.96,2001.36,2000.98,2000.73,2000.53,2001.34,2001.15,2000.71,1997.82,2001.72,1999.32,1997.87,1995.05,2002.01,2001.66,2001.78
1999.76,2004.77,2000.93,1993.86,1995.48,2006.57,2005.75,2005.67,2006.91,2005.11,2003.38,2002.66,2002.28,2003.15,1995.77,1995.08,2005.53,2000.9,2000.67,1999.42,2000.57,2000.56,2001.25,2000.12,2002.08,2001.46,2001.39,2002.08,2002.01,2001.22,2000.77,2000.58,2000.52,2000.5,2000.48,2000.46,2000.46,1999.78,2000.8,2000.88,1997.99,1994.9,2001.45,2001.17,2001.1,1997.94,2001.66,2000.72,2000.89,1999.36,2003.33,1998.13,2001.52,1996.89,1998.11,1995.89,2003,2001.08,2000.6,2000.52,2000.95,2000.64,2000.54,2001.88,2000.49,1999.33,2000.55,2000.5,2000.73,1998.5,1998.49,2000.71,2000.53,2000.53,2000.6,2000.56,1998.99,2002.27,2000.2,2002.19,1999.9,2001.72,2001.49,2002.29,2003.1,2002.12,2001.82,2001.76,2001.66,2001.75,2001.87,2002.32,2003.34,2006.22,2011.37,2015.59,1999.33,2001.49,2004.21,2013.56,2011.85,2006.31,2003.83,2002.93,2001.75,2001.3,2001.13,2000.93,2000.85,2000.96,2000.91,2001.52,2000.23,2001.15,2001.42,2002.08,2001.1,2001.03,2001.12,2000.91,2000.75,2000.77,2000.54,2002.01,1998.67,2000.5,2000.51,2000.52,2001.02,2000.85,1999.05,2000.47,2000.52,2000.67,2001.62,2001.44,2003.54,1996.33,1992.37,1996.66,2004.45,2002.37,1999.39,2000.56,2000.52,2000.52,2000.54,2000.58,2000.63,2000.61,2000.59,2000.58,2000.59,2000.61,2000.66,2000.31,2000.86,2000.87,2000.86,2000.77,2001.12,2000.82,2000.73,2000.77,2000.95,1998.61,2001.9,2001.33,2001.3,2001.4,2002.8,2000.06,2004.46,2002.25,2002.03,1996,2002.04,2002.47,2000.3,2001.9,2002.07,2001.49,2001.49,2001.83,2001.39,2000.68,2000.63,2001.37,2002.03,2000.25,2001.88,2003.79,2001.67,2001.47,2001.5,2002,2000.55,2002.49,2001.76,2001.92,2002.58,2002.07,2007.66,2001.16,1995.29,1996.52,2005.36,2000.87,2003.8,2002.97,2002.87,2003.21,2001.51,2003.13,2003.11,2003.23,2003.38,2003.54,2003.79,2007.77,2004.84,2005.51,2005.79,2005.67,2005.5,2005.57,2005.91,2006.53,2006.25,2006.56,2006.89,2007.31,2007.76,2008.18,2008.77,2011.57,2009.22,2010.7,2011.55,2013.28,2016.6,2021.35,2019.99,2012.77,2010.02,2011.3,2016.86,2027.36,2022.82,2019.47,2018.92,2018.71,2018.86,2019.13,2019.71,2019.78,2020.14,2018.45,2020.13,2020.94,2017.5,2018.32,2021.24,2021.4,2020.68,2019.98,2019.37,2019.43,2019.2,2020.33,2019.73,2018.97,2018.21,2017.56,2016.94,2016.6,2015.71,2015.16,2014.52,2013.86,2013.31,2012.73,2012.15,2011.67,2011.47,2011.63,2010.82,2009.84,2007.1,2010.41,2008.22,2007.84,2007.38,2006.98,2006.65,2006.36,2006.28,2009.79,2001.65,2004.96,2005.55,2004.87,2005.11,2005.67,2005.27,2003.82,2003.69,2003.51,2003.46,2002.94,2004.53,2005.8,2004.38,2005.46,2006.23,2005.5,2004.32,2003.14,2002.58,2002.33,1998.83,2001.85,1999.37,2001.9,2000.76,2001.09,2001.67,2001.45,2001.36,2001.3,2001.27,2001.43,2000.63,2002.3,2001.1,2002.03,2001.47,2001.56,2001.45,2002.27,2000.36,2001.04,1997.89,2003.76,2001.01,1999.95,2000.86,2000.95,2000.98,2001,2000.98,2001.34,2001.04,2003.27,2003.15,2001.77,2001,2003.3,1993.74,1990.09,1992.17,2001.08,2003.97,2001.55,2000.97,2000.75,2000.66,2000.68,2001.21,2000.71,2000.83,2001.93,1998.24,1997.02,1994.24,2001.06,2001.92,2001.72
1999.98,2002.71,2003.29,1996.12,1998.42,2012.17,2007.3,2001.82,2001.97,2007.77,2005.34,2003.26,2002.1,2002.34,2000.02,1999.23,2001.94,2000.86,2000.98,2000.69,2000.58,2000.56,2000.67,2002.32,1999.73,1998.48,2003.14,1997.54,1997.85,2002.49,2003.02,2000.68,2000.58,2000.56,2000.54,2000.51,2000.5,2000.5,2000.53,2000.73,2003.32,1999.66,2001.43,2000.81,2003.37,1996.22,2003.95,2000.71,2000.96,1997.68,2000.72,2001.07,2001.55,2003.29,1994.83,1992.77,1999.36,2001.32,2000.73,2000.67,1999.07,1997.82,2000.69,2002.15,2000.64,2000.38,1998.84,2000.56,2000.68,2000.71,2000.86,2000.74,2000.59,2000.57,2000.58,2000.81,2001.01,2000.88,2001.13,2001.08,2000.71,2000.75,2002.08,1998.75,1995.63,2003.83,2001.43,2001.33,2000.02,1997.48,2001.7,2002.04,2002.88,2004.83,2008.13,2017.25,2013.58,2004.66,2003.71,1997.05,2009.29,2009.11,2005.85,1998.88,2002.23,2001.83,1999.02,2001.18,2000.94,2001.68,2000.93,2000.93,2001.28,2001.01,2001.34,2002.21,2001.46,2000.69,2000.94,2001.2,2000.87,2000.98,2001.19,1997.62,2000.64,2000.46,2000.42,2000.43,2000.49,2000.45,2000.52,2000.46,2000.94,2000.3,2001.34,2001.2,2002.58,2000.6,1996.33,2002.04,2002.41,2001.27,2000.7,2000.55,2000.53,2000.55,2000.61,2000.76,1999.96,2000.9,2000.63,2000.61,2000.61,2000.01,2000.72,2002.47,2000.76,2000.68,2002.05,2001.06,2001.26,2000.85,2000.78,2000.78,2000.86,2001.06,2001.21,2001.96,2001.28,2001.56,2004.56,2003.46,2002.28,2002.21,2002.72,2005.07,2003.45,2002.78,2002.06,2001.87,2001.8,2001.73,2001.61,2001.52,2001.45,2001.46,2001.48,2001.41,2001.38,2001.99,2002.53,1997.25,2002.26,2001.52,2001.46,2001.6,2002.5,2002.7,2001.69,2001.82,2002.31,2001.98,2004.84,2007.63,2005.28,2006.82,2005.82,2003.58,2002.89,2002.71,2003.05,2001.87,2000.41,2003.59,2003.1,2003.86,2003.66,2003.5,2003.74,2003.11,2002.35,2010.18,2003.64,2006.75,2006.13,2005.99,1998.37,2006.45,2006.18,2003.86,2006.69,2007.18,2007.65,2008.58,2005.5,2008.62,2009.15,2009.8,2011.04,2011.54,2017.19,2014.97,2018.95,2024.2,2023.05,2024.46,2023.78,2020.55,2017.3,2018.73,2016.9,2016.8,2016.94,2017.21,2017.51,2017.8,2018.1,2018.53,2018.74,2018.91,2018.86,2019,2018.95,2020.59,2019.66,2017.06,2016.49,2019.53,2018.34,2017.81,2017.66,2014.9,2016.41,2015.87,2015.35,2014.83,2014.28,2013.98,2013.38,2012.84,2012.78,2012.06,2011.28,2011.47,2006.81,2005.35,2010.88,2009.03,2008.72,2009.09,2009.12,2007.38,2006.96,2006.68,2006.87,2006.36,2005.83,2005.83,2006.09,2005.68,2003.76,2004.94,2000.75,2004.99,2004.1,2003.66,2003.5,2003.39,2003.36,2004.32,2004.44,2004.99,2007.04,2006.66,2002.62,2005.27,2007.72,2004.02,2002.84,2002.43,2002.26,2001,2001.84,2001.73,2001.8,2001.74,2001.56,2001.42,2001.33,2001.27,2001.23,2001.22,2001.28,2001.34,2002.23,1997.46,2002.8,2000.71,2001.56,2001.34,2001.53,2001.34,2002.16,2002.14,2000.92,2000.86,2000.81,2001.03,2001.06,2000.83,2001.19,1999.83,2000.93,1999.31,2001.87,2000.69,2003.29,2004.78,1994.46,1991.3,1999.64,2002.98,2002.48,2000.39,2002.36,2001.42,2000.69,2001.49,2001.57,1999.43,2001.56,2000.99,2001.51,2002.89,2003.35,2001.92,2001,2002.33
2002.57,2003.53,2002.96,2003.68,2007.23,2007.37,1996.65,1991.86,1991.99,1997.05,2008.15,2004.79,2002.81,2002.6,1997.03,2002.27,2001.09,2000.77,2000.88,1998.7,2000.63,2000.58,2000.93,2001.12,2003.59,2002.29,2001.69,1993.37,1993.66,2002.78,2001.56,2000.83,2000.93,2001.96,2000.85,2000.67,2000.57,2000.54,2001.89,2000.57,2001.12,2000.9,2000.67,2000.66,2001.75,1998.3,2001.71,2000.94,2000.67,2002.55,2000,2000.82,2000.73,2002.52,2000.51,1998.19,2005.74,2001.11,1998.04,2000.7,2001.26,2001.84,2000.59,2000.59,1998.28,1999.07,2000.91,2001.14,2000.76,2001,2001.14,2000.99,2002.37,2001.21,2000.67,2000.68,2000.66,2000.66,2000.67,2000.7,2000.93,2002.4,2001.4,1999.47,1996.42,2004.58,2001.28,1998.49,2000.7,2001.39,2001.47,2001.85,2002.62,2004.16,2007.91,2009.44,1998.74,1992.92,1991.52,1992.97,1999.07,2011.46,2006.22,2003.5,2001.89,2001.55,2001.77,2000.3,2001.11,2001.31,2000.97,2001.01,1998.68,2001.08,2000.18,2001.61,2001.87,2001.5,2001.24,2000.76,2001.28,2002.18,2001.6,2000.21,2000.85,2000.51,2000.44,2000.71,2000.54,2000.46,2000.42,2000.49,2000.94,2002.27,2000.6,2001.72,2001.1,2002.44,2002.13,2002.4,2001.15,2000.85,2000.61,2000.62,2000.59,2000.65,2000.84,1998.54,1998.27,2000.93,2000.7,2000.67,2000.65,2000.66,2000.65,2000.65,2000.66,2000.71,2002.77,2000.73,1997.17,2001.15,2000.82,2000.81,2000.92,2001.27,2000.99,2002.49,2001.81,1999.2,2002.34,2001.13,2002.67,2002.34,2002.52,2005.57,2004.83,2002.83,2002.4,2002.26,2002.17,2002.29,2001.1,2001.77,2001.56,2001.48,2001.42,2001.14,2001.48,2001.39,2001.55,2001.95,2001.92,1999.32,2001.48,2001.57,2001.65,2001.57,2001.64,2001.84,2001.93,2002.28,2002.65,2003.27,2003.93,2002.4,2003.25,2002.74,2002.55,2002.55,2003.05,1999.92,1998.54,2003.73,2003.04,2000.31,2001.57,2004.1,2003.65,2004.67,2002.45,2002.27,1996.73,1999.4,2007.81,2006.8,2002,2003.13,2006.44,2006.19,2006.81,2003.87,2003.27,2004.51,2008.49,2008.07,2008.45,2008.94,2009.56,2010.32,2011.31,2012.55,2013.99,2015.55,2016.7,2016.98,2016.53,2015.95,2015.76,2015.32,2015.25,2015.18,2015.35,2015.89,2016.08,2016.08,2016.68,2016.05,2016.69,2016.89,2016.9,2016.98,2017.02,2016.65,2017.81,2017.5,2017.43,2016.65,2016.25,2015.94,2015.72,2015.54,2014.95,2014.47,2013.98,2013.52,2013.27,2012.61,2012.15,2007.38,2006.8,2008.97,2010.51,2010.64,2009.28,2007.83,2009.6,2008.37,2007.96,2008.41,2009.6,2007.36,2007.19,2006.59,2005.12,2006.46,2006.15,2005.3,2005.05,2004.87,2005.81,2004.54,2004.7,2004.22,2003.7,2003.52,2003.38,2003.29,2003.25,2003.34,2003.76,2005.36,2007.36,1997.01,1993.52,1995.82,2004.58,2005.48,2003.22,2000.03,2002.63,2001.89,2001.74,2001.64,2001.58,2002,2000.92,2001.54,2001.31,2001.25,2001.2,2001.16,2001.15,2001.23,2004.41,1999.26,2001.62,2001.3,2002.43,1998.82,2000.59,2001.34,2000.94,2001.2,2000.94,2000.77,2000.87,1999.39,1998.94,2000.9,2000.76,2000.8,2000.78,1999.59,2001.79,2002.23,2003.03,2006.02,2002.57,1998.85,2002.3,2006.53,2002.81,2001.32,2000.86,2001.39,2000.91,2000.43,1997.98,1998.99,2001.38,2002.29,2000.86,2000.9,2000.16,2002.24,2000.73,2000.78
2001.59,2001.49,2001.97,2003.23,2006.64,2001.95,1991.92,1987.39,1987.51,1992.3,2002.71,2006.52,2001.38,2001.95,2001.46,1999.5,2000.93,2000.72,2000.65,2000.63,2000.6,2000.6,2001.88,2001.14,2000.9,2001.68,2006.68,1997.45,1997.79,2003.49,1999.01,2000.9,2001.07,2002.22,2000.76,2001.27,2000.76,2000.67,2000.76,2000.54,2000.72,2000.59,2000.58,2000.7,2000.84,2001.16,2000.69,2000.54,2000.54,1999.81,1999.86,2000.63,2000.77,2000.97,2001.37,2001.54,2001.07,2001.4,2000.99,2000.61,2001.29,2002.54,2000.52,2000.51,2000.57,2000.63,2000.75,1997.59,2001.52,2000.92,2001.12,1999.29,1998.55,2000.96,2000.83,2000.81,2000.99,2000.77,2000.66,2000.66,2000.72,2001.06,2001.3,2001.67,2002.8,2001.29,2000.96,2001.02,2001.04,2001.37,2001.6,2001.96,2003.78,2004.16,2009.02,2004.16,1993.66,1987.56,1986,1988.5,1994.59,2006.55,2006.38,2003.11,2001.95,2001.74,2000.93,1998.6,2001.22,2001.18,2001.18,2001.18,2001.25,2001.22,2001.29,2001.94,2002.59,1995.2,2002.65,2000.85,2000.75,2000.47,2000.8,2001.89,2001.31,2000.86,2000.5,1999.04,2000.71,2001.08,2000.44,2000.55,2001.83,1996.16,1998.54,2001.1,2000.74,2001,2001.21,2000.91,2000.75,2000.75,2001.09,2001.42,2000.75,2001.26,2001.6,2002.9,2001.54,2000.96,2000.84,2000.79,2001.16,2000.84,2001.12,2000.68,2000.73,2002.48,2001.63,2001.53,2002.84,2001.33,2000.96,2001.04,1998.28,2000.62,2000.86,2000.22,2001.64,2002.69,2002.23,2002.48,2002.88,2002.96,2003.16,2003.3,2003.39,2003.33,2003.17,2002.94,2002.69,2002.41,2002.15,2001.91,2001.72,2001.59,2001.61,2000.83,2001.42,2001.36,2001.35,2001.37,2001.44,2001.68,2001.43,2001.48,2001.52,2001.49,2003.03,2001.95,2001.9,2002.11,2002.14,2002.32,2002.49,2002.52,2002.44,2002.37,2002.35,2002.4,2002.61,2003.36,2003.65,2002.94,2002.84,2002.96,2003.12,2003.33,2003.79,2003.6,2008.98,2003.85,1998.14,2000.88,2006.84,2005.23,1996.19,1997.52,2007,2005.92,2007.41,2001.2,2002.2,2005.17,2005.57,2007.21,2007.69,2008.3,2008.79,2009.35,2010.07,2011.12,2011.58,2012.36,2012.97,2013.47,2013.49,2013.51,2016.02,2014.92,2009.24,2013.93,2013.92,2014.93,2011.57,2014.68,2014.75,2014.94,2015.05,2015.17,2015.31,2015.28,2015.45,2015.37,2015.33,2015.35,2015.27,2014.87,2014.63,2014.4,2014.65,2011.2,2014.55,2010.37,2013.45,2012.41,2011.71,2011.59,2011.17,2010.89,2011.47,2010.62,2009.65,2009.31,2007.59,2008.84,2008.23,2007.8,2007.46,2007.19,2006.96,2007.09,2004.87,2007.64,2005.92,2007.76,2003.11,2003.81,2005.46,2004.49,2004.26,2004.22,2001.12,2004.01,2003.61,2003.52,2003.33,2003.25,2003.19,2003.29,2003.78,2005.89,2003.93,1994.08,1990.73,1992.94,2001.3,2006.39,2003.26,2004.67,2002.24,2001.83,2002.15,2001.74,2001.54,2002.15,1999.51,2001.81,2001.48,2001.23,2001.18,2001.14,2001.12,2001.2,2001.28,2001.27,2001.14,2001.35,1997.87,1999.58,2001.45,2000.97,2000.86,2000.06,2001.2,2000.77,2000.81,2001.84,2002.17,2001.5,2000.68,2000.69,2000.82,2001.23,2001.18,2001.43,2002.1,2002.74,2004.3,2005.4,2002.39,2002.67,2001.78,2001.36,2000.83,2000.64,2000.81,1999.58,1999.16,1999.7,2000.75,2000.52,2000.52,2000.56,2000.9,2000.78,2000.58,2000.59
2001.41,2001.3,2001.75,2002.79,2006.26,2002.17,1992.11,1987.56,1987.69,1992.5,2004.7,2006.06,2003.25,2001.65,2001.59,2001.98,2001.1,2000.71,2000.64,2000.62,2000.6,2000.6,2000.71,1998.52,2000.83,2001.13,2003.45,2003.39,2002.35,2001.76,1998.85,2001.32,2001.54,1997.6,1995.3,2004.05,2001.61,2001.69,2001.07,2000.59,2000.54,2000.6,2000.87,1997.51,2000.64,2002.32,2000.75,2000.76,2000.54,2000.67,2000.73,2000.7,2000.88,2000.82,2000.73,2000.7,2000.86,1999.9,2000.55,2000.49,2000.49,2000.54,2000.52,2000.52,2000.53,2000.55,2000.6,2000.78,2000.69,2000.66,2000.74,2001.08,2001.16,2000.77,2000.71,2000.7,2001.4,2000.6,2000.83,2000.79,2000.72,2000.7,2000.93,2001.07,2000.87,2000.82,2000.79,2000.82,2000.99,2001.06,2001.58,2001.78,2003.14,2004.19,2005.51,2011.56,1998.35,1987.42,1985.8,1988.18,1994.88,2007.05,2006.13,2003.43,2001.91,2001.48,2001.35,2001.44,2001.96,2004.19,2000.32,2002.11,2001.91,2001.65,2001.44,2001.15,2001.63,2004.19,2000.69,2001.14,2000.85,2000.68,2000.93,1999.47,2000.95,2000.57,2000.64,2001.4,2001.14,1998.61,2000.55,2000.54,2001.63,1996.95,1999.34,2000.98,2000.61,2000.59,2000.65,1998.78,2001.13,2000.63,2000.75,2000.63,2000.73,2001.02,2001.17,2001.17,2001.28,2000.45,2001.31,2001.07,2001.03,2000.83,2000.81,2000.7,2000.74,2001.64,2000.88,2000.81,2000.89,2001.01,2000.95,2001,1999.81,2002.92,2001.36,2001.56,2001.72,2004.42,2002.57,2003.71,2004.6,2004.07,2003.53,2004.78,2004.94,2004.86,2004.59,2004.25,2003.81,2003.19,2002.62,2002.21,2001.93,2001.73,2002.34,2000.65,2001.46,2001.8,2001.37,2001.32,2001.33,2001.94,2002.11,2001.37,2001.4,2001.45,2001.59,2001.69,2002.41,1999.49,2002.08,2002.52,2002.29,2002.17,2002.16,2002.26,2002.45,2002.3,2002.89,2002.98,2003.25,2002.65,2002.77,2001.82,2002.96,2003.06,2003.3,2003.66,2004.27,2005.68,2008.75,2006.44,2005.2,2006.33,2000.65,2002.18,2006.02,2005.55,2006.39,2004.73,2005,2005.9,2006.93,2007.1,2007.46,2008.49,2009.15,2008.6,2009.2,2007.28,2010.19,2008.96,2011.12,2011.73,2011.84,2012.25,2012.8,2012.96,2013.15,2011.53,2012.84,2012.89,2013.31,2013.11,2013.35,2013.48,2013.61,2013.72,2013.88,2013.34,2014.15,2013.95,2013.84,2013.72,2013.59,2013.42,2013.24,2013.08,2013.38,2010.19,2013.36,2012.24,2011.91,2011.58,2008.74,2010.77,2010.32,2009.94,2009.62,2009.27,2008.91,2008.57,2008.28,2007.99,2007.69,2007.41,2007.11,2006.88,2006.82,2007.7,2004.61,2005.75,2005.64,2005.32,2005.03,2004.76,2004.62,2004.25,2004.04,2003.88,2003.8,2003.71,2003.53,2004.48,2003.82,2004.1,2003.32,2003.79,2003.89,2005.57,2007.34,1997,1993.5,1995.8,2004.56,2005.4,2002.99,2002.28,2001.95,2001.76,2001.67,2001.56,2001.48,2001.48,2001.52,2001.43,2001.32,2001.23,2001.34,2001.27,2001.13,2001.86,2002.03,2001.06,2001.1,2001.98,2000.02,2000.72,2001.12,2000.86,2000.81,2000.99,2000.93,2000.75,2000.86,2000.81,2000.6,2000.7,2000.65,2000.77,1999.51,1998,2001.5,1998.99,2001.25,2001.45,1999.24,2001.9,2002.54,2002.15,2001.46,1996.91,2001.15,2000.6,2000.67,2001.93,2001.47,2000.78,2000.52,2000.45,2000.45,2000.46,2000.49,2000.49,2000.51,2000.55
2001.07,2001.24,2000.56,2004.8,2004.83,2008.06,1997.24,1992.42,1992.55,1997.65,2008.87,2004.37,2002.2,2001.5,2001.29,2000.99,2000.82,2000.71,2000.66,2000.64,2000.65,2000.63,2000.66,2000.88,1998.5,2000.05,2000.93,2001.02,2001.28,2001.03,2000.88,2000.83,2001.45,1998.55,1996.25,2005.17,1997.81,1997.48,2001.38,2000.53,2000.59,2000.95,2000.15,2003.56,2000.2,2002.1,1998.24,2001.6,2000.67,1999.85,2000.17,2001.52,2000.04,2005.09,2000.76,2000.58,2000.71,1998.63,2000.53,2000.5,2000.5,2000.56,2000.78,2000.61,2000.58,2001.23,2000.66,2000.63,2000.66,2000.7,2000.84,2002.05,2000.9,2000.89,2000.86,2000.84,2000.97,2001.33,2002.46,2002.17,2000.77,2000.71,2000.76,2001.25,2000.85,2000.74,2000.71,2000.74,2000.85,2001.33,1998.01,2001.71,1999.68,2003.27,2011.44,2009.87,1998.01,1991.79,1990.13,1992.7,1999.87,2012.42,2004.85,2002.74,2001.85,2001.57,2002.29,1999.64,2002.28,1997.35,2002.82,2002.38,2002.56,2002.59,2002.64,1997.81,2002.25,2001.58,2001.37,1998.21,2002.75,2000.78,2000.95,1997.64,2001.6,2000.63,2000.56,2000.55,2000.52,2000.91,2000.58,2000.46,2000.69,1999.45,2001.71,2000.81,2000.81,2000.56,2000.53,2000.74,2000.58,1999.12,2001.11,2000.75,1999.49,2001.42,2002,2002,2002.31,2002.58,2002.1,2001.96,2002.01,2000.95,2000.8,2000.73,1999.69,2000.82,2000.75,2000.93,2001.64,2001.19,2000.42,2001.18,2001.25,2001.28,2001.42,2002.03,2002.39,2002.55,2003.59,2003.2,2003.94,2006.14,2007.03,2007.81,2008.23,2008.03,2007.46,2009.39,2013.89,2005.31,2003.44,2002.66,2002.2,2001.9,2001.71,2001.76,2002.2,2001.44,2001.4,2001.32,2001.3,2001.32,2001.34,2001.34,2001.37,2001.43,2001.66,2002.5,2002.42,2003.43,2001.98,2003.9,2003.46,2002.8,2002.19,2002.44,2001.89,2002.27,2003.61,1998.77,2003.48,2002.54,2002.64,2003.24,2002.83,2002.93,2003.3,2003.03,2003.58,2004.11,2004.4,2004.29,2004.33,2004.63,2005.21,2005.35,2005.13,2005.13,2005.44,2006.14,2006.48,2006.25,2006.29,2006.53,2006.21,2007.19,2006.56,2008.23,2008.4,2008.69,2004.97,2009.52,2009.81,2010.24,2011.24,2013.06,2008.53,2010.4,2012.24,2011.99,2008.47,2011.84,2011.82,2011.99,2012.13,2012.26,2012.39,2012.64,2010.08,2012.79,2010.38,2013.97,2009.89,2012.64,2012.34,2012.19,2012.03,2011.88,2011.86,2008.58,2010.37,2011.36,2009.84,2012.08,2010.77,2008.59,2010.14,2009.22,2009.04,2008.62,2008.52,2008.3,2008.39,2009.66,2008.38,2008.31,2007.42,2005.8,2008.16,2008.58,2003.41,2006.45,2005.31,2002.46,2004.73,2004.65,2004.79,2004.15,2003.88,2003.69,2003.53,2003.4,2003.4,2003.21,2003.48,2004.58,2007,2003.75,2002.89,2001.53,2007.18,2006.62,2002.58,2005.23,2007.5,2003.61,2002.65,2002.1,2001.85,2001.69,2001.58,2001.49,2001.43,2001.42,2002.4,2001.78,2001.24,2001.25,1999.36,2001.18,2001.17,2001.27,2001.83,2001.04,2001.11,2003.35,1995.55,2000.81,2001.09,2000.83,2000.77,2000.75,2000.73,2000.8,1999.51,2002.41,2000.7,2000.63,2000.62,2000.64,2000.73,2000.81,2000.76,2001.25,2000.9,2000.97,2001.43,2001.06,2001.02,2000.93,2000.89,2001.23,2000.7,2000.54,2000.53,2000.62,2001.96,2000.31,2000.5,2000.45,2000.44,2000.48,2000.61,2000.49,2000.58,2000.38
2001.16,2001.38,2002.11,2001.52,2003.15,2005.96,2008.45,2002.88,2003.03,2008.93,2006,2003.08,2001.81,2001.89,1998.43,2000.94,2000.78,2000.71,2000.67,2000.72,1999.66,2000.82,2001.92,2000.69,2000.85,2000.73,2000.7,2000.84,2003.41,2002.86,1999.35,2000.85,2001.15,2002.45,1998.39,2001.81,1999.47,1999.25,2001.14,2000.71,2000.67,2001.28,2001.64,2002,2001.93,2001.2,1996.35,1997.61,2000.87,2000.94,2000.96,2004.99,1996.14,2000.51,2000.83,2000.56,2000.53,2000.56,2000.52,2000.52,2000.53,2000.58,1999.19,2000.78,2000.66,2000.75,2000.69,2000.7,2000.75,2000.83,2000.97,2001.18,2001.32,2001.38,2001.24,2001.17,2001.16,2005.31,1995.63,1997.96,2001.49,2000.75,2000.84,1999.26,2000.78,2000.46,2000.75,2000.71,2000.77,2000.93,2001.63,2000.13,2000.79,2002.49,2003.94,2007.67,2007.97,2001.17,1999.42,2002.28,2010.51,2007,2003.78,2002.35,2001.9,2001.91,2000.26,2002.18,2002.8,2003.72,2003.25,2003.89,2004.68,2004.96,2003.2,2005.43,2000.15,2002.16,2001.51,2001.56,2001.1,2001.18,1994.77,2001.28,2001.03,2001.33,2000.77,2001.42,2001.01,2000.63,2000.58,2000.41,2000.45,2000.61,2000.73,2002.07,1997.27,2000.78,2000.49,2000.56,2000.56,2000.87,1998.25,2000.86,2001.33,2001.5,1999.19,2005.13,2006.9,2008.1,2005.42,2003.09,2002.17,2001.84,2001.1,2000.78,2000.82,1999.41,2000.83,2001.54,2003.31,2002.36,2001.48,2001.09,2001.16,2001.35,2001.71,2000.63,2000.41,2005.93,2004.44,2009.23,2007.38,2009.58,2012.37,2015.25,2016.72,2015.87,2013.62,2010.87,2005.69,2010.95,2004.6,2003.25,2003.92,2002.11,2001.83,2002.33,2001.94,2001.43,2001.35,2001.31,2001.64,2001.33,2001.89,2001.34,2001.36,2001.41,2001.73,2001.38,2001.65,2001.76,2002.24,2003.62,2003.31,2002.6,1999.18,2004.45,2003.1,2002.2,2002.94,2000.72,2002.77,2002.46,2002.52,2002.62,2002.73,2002.87,2003.01,2003.22,2003.27,2003.53,2003.7,2003.75,2003.89,2004.08,2004.3,2005.03,2002.48,2004.87,2004.99,2005.89,2005,2005.76,2005.86,2006.1,2006.39,2006.76,2007.68,2008.14,2007.71,2007.91,2008.63,2004.66,2008.88,2009.47,2007.83,2009.5,2002.15,2003.76,2012.62,2011.17,2010.7,2010.7,2010.8,2010.93,2011.07,2011.18,2011.31,2012.39,2012.27,2011.66,2012.32,2012.22,2011.87,2011.43,2011.25,2011.12,2010.99,2010.9,2007.86,2011.67,2010.48,2010.52,2011.49,2009.65,2009.55,2009.15,2009.37,2008.57,2006.83,2008.26,2007.71,2007.48,2005.81,2008.16,2006.36,2002.75,2003.9,2007.69,2002.05,1999.14,2005.95,2005.79,2005.11,2004.71,2004.49,2001.98,2004.29,2004.35,2003.93,2003.59,2003.4,2003.25,2003.14,2003.1,2003.7,1999.31,1997.64,2004.56,2004.62,2002.56,2004.28,2005.07,2005.84,2005.11,2003.75,2002.8,2002.26,2001.95,2001.76,2001.63,2001.53,2001.45,2001.39,2001.38,2002.13,2001.53,2001.2,2001.18,2001.42,2001.31,2001.16,2001.15,2001.11,2001.01,2001.03,2001.47,2004.32,2001.66,2000.96,2000.81,2000.75,2000.72,2000.75,2002.65,2001.42,2001.1,2000.66,2000.61,2000.6,2000.6,2000.6,2000.61,2000.63,2000.68,2000.77,2000.83,2000.82,2000.81,2000.84,2001.03,2000.04,2000.62,2000.54,2000.5,2000.48,2000.54,2000.86,2000.8,2001,2001.01,2000.9,2000.76,1997.8,2000.6,2000.58,1999.3
2001.94,1999.46,2001.54,2001.67,2002.08,2003.02,2004.49,2005.41,2006.27,2004.7,2003.32,2002.12,2000.12,2001.32,2001.12,2000.87,2000.77,2000.72,2000.69,2000.68,2000.7,1999.18,2000.96,2000.77,2002.18,2000.7,2000.67,2000.93,1997.51,2001.57,2000.81,2000.77,2001.55,1999.49,2001.83,2001.07,2001.04,2001.03,1998.5,2001.52,2001.35,2000.86,2001.23,1999.56,2000.63,2003.26,2000.91,2000.93,2001.64,2000.77,2000.78,2001.08,2002.94,2001.51,2000.68,2000.58,2000.62,2000.54,2000.54,2000.55,2000.58,2000.61,2000.7,2000.82,2001.18,2000.73,2000.75,2000.8,2000.89,2001.05,2001.31,2001.75,2002.4,2002.65,2002.26,2000.81,2001.59,2002.56,1997.25,1999.64,2001.26,2000.76,2000.88,1999.53,2002.06,2000.75,2001.24,2000.79,2001.05,2000.89,2000.92,2001.13,2001.55,2001.82,2002.55,2004.02,2006.24,2009.15,2001.38,2008.67,2006.65,1998.05,2002.52,2002.27,2002.68,2005.18,2004.03,2002.72,2002.57,2003.48,2005.26,2008.25,2012.02,2013.96,2011.5,2006.76,2003.95,2002.95,2001.88,2001.33,2001.05,2000.69,1997.16,2002.66,1998.94,2001.66,2001.13,1996.98,2002,2000.67,2000.78,2000.39,2000.4,2000.43,2000.48,2001.06,2001.67,2000.62,2000.51,1998.89,1999.94,2000.86,2000.02,2000.87,2001.58,1999.11,1998.19,2007.17,1998.76,1997.02,2001.37,2007.29,2002.59,2001.43,2001.04,2000.93,2000.84,2001.01,2000.88,2001.07,2003.52,2001.41,2001.08,2001.13,2001.34,2001.71,2001.86,2005.39,2005.13,2001.94,2005.54,2007.46,2011.2,2017.71,2012.33,2007.1,2005.24,2007.23,2011.48,2013.63,2008.12,2013.76,2005.76,2003.93,2003.05,2002.34,2002.01,2001.07,2001.66,2001.41,2001.33,2001.31,2001.51,2001.32,2001.77,2001.41,2001.41,2001.45,2001.47,2001.51,2001.54,2001.73,2003.2,1996.48,2003.18,2002.01,2002.13,2000.23,2001.52,2002.11,2002.17,2002.36,2002.92,2003.95,2003.07,2002.69,2002.9,1998.38,2002.95,2002.96,2003.08,2003.25,2003.37,2003.49,2003.63,2003.79,2004,2004.42,2002.75,2004.58,2004.67,2004.94,2005.68,2003.92,2005.53,2005.91,2006.71,2006.24,2006.83,2006.94,2007.01,2007.29,2007.72,2005.69,2008.16,2006.83,2008.07,2012.48,2004.63,2006.33,2010.62,2009.86,2009.68,2009.75,2009.87,2010,2010.12,2010.23,2010.34,2010.48,2010.66,2010.89,2011.01,2012.48,2010.75,2010.68,2010.31,2010.18,2010.06,2009.95,2010.09,2009.78,2009.47,2009.29,2009.35,2009.23,2008.67,2008.48,2008.21,2007.94,2007.72,2007.47,2007.23,2007,2006.98,2006.72,2006.98,2005.93,2006.91,2007.58,2002.77,1999.81,2006.74,2005.55,2005.51,2004.52,2004.24,2004.11,2004.09,2004.99,2005.22,2003.75,2003.31,2002.84,2003.08,2002.98,2003.17,2002.38,2000.56,2003.64,2002.95,2001.2,2003.07,2003.09,2003.15,2002.95,2002.61,2002.3,2002.02,2001.81,2001.67,2001.57,2001.48,2001.41,2001.35,2001.31,2001.27,2001.22,2001.17,2001.13,2001.19,2001.76,2001.08,2001.08,2000.98,2001.84,2001.58,2001,2001.14,2000.96,2000.85,2000.86,2000.74,2000.74,2001.27,2001.64,2001.44,2000.67,2000.62,2000.6,2000.62,2000.75,2000.64,2000.58,2000.6,2000.71,2001.83,2002.18,2001.05,2001.26,2001.35,1997.13,2001.25,2000.58,2000.52,2000.48,2000.47,2000.71,1997.48,2001.3,2000.49,2000.57,2001.07,2000.74,2001.09,2000.55,2000.46,2000.48
2002.88,2001.33,2001.21,2001.35,2001.69,2001.9,2002.69,2002.94,2002.72,2002.35,2002.09,2001.63,2001.46,2001.15,2000.95,2000.85,2000.84,2000.74,2000.72,2000.79,2000.71,2000.81,2000.72,2000.82,1999.98,2000.74,2000.8,2000.72,2000.88,2000.78,2000.73,2000.72,2001.09,1998.35,2001.95,2000.76,2000.68,2000.65,2000.71,2002.82,1998.95,2000.82,2000.71,2001.6,1998.24,2002.67,2000.72,2000.99,2001.68,2001.37,2000.7,2000.64,2000.7,2000.66,2000.59,2000.65,2001.74,2000.58,2000.59,2000.61,2000.65,2000.69,2000.78,2000.82,2000.83,2000.84,2000.88,2000.96,2001.57,2001.5,2002.02,2003.48,2006.19,2008.22,2006.25,2002.2,2002.05,2002.05,2002.18,2001.55,2001.37,2000.99,2000.82,2000.91,2000.81,2000.66,2000.79,2001.37,1997.91,2001.39,2000.83,2000.92,2001.33,2002.16,2001.81,2001.58,2003.15,2003.67,2004.03,2003.65,2003.7,1999.24,2003.92,2002.27,2002.43,1995.07,1997.07,2001.94,2003.41,2005.31,2004.81,2006.44,2000.41,1998.85,2001.53,2008.82,2008.69,2004.31,2002.49,2001.61,2001.15,2001.09,2001.72,2001.23,1995.97,2002.28,2000.85,2000.74,2000.52,2000.42,2000.39,2000.39,2001.31,2000.44,2000.43,2000.47,2000.5,2000.48,1999.28,2001.9,2002.37,2000.65,2000.66,2000.82,2001.34,2003.29,2009.99,1999.56,1992.04,1990.45,1994.39,2004.96,2003.94,2001.76,2001.37,2002,2001.08,2000.85,1999.24,1998.96,2000.94,2000.93,2001.45,2000.57,2001.66,2002.94,2003.24,2002.47,2003.15,2006.28,2006.74,2010.46,2007.17,2007.84,1998.96,1994.68,1992.97,1994.24,1998.47,2006.01,2017.48,2012.27,2007.23,2004.85,2004.14,2002.6,2002.1,2001.81,2001.57,2001.42,2001.34,2001.3,2001.28,2001.3,2001.67,1999.33,2002.31,2004.07,2001.93,2001.78,2001.52,2001.64,2002.7,2000.58,2002.79,2001.83,2001.81,2002,2002.02,2001.95,2002.01,2002.12,2002.33,2003.58,2000.32,2001.96,2003.86,2000.77,2003,2002.87,2002.99,2002.08,2003.28,2003.31,2003.44,2003.59,2004.64,2005.2,2004.14,2004.3,2004.53,2004.61,2005.15,2005.52,2005.18,2005.36,2005.58,2005.86,2004.67,2007.31,2006.63,2006.85,2004.41,2007.34,2007.69,2007.88,2008.62,2008.98,2011.22,2008.92,2010.37,2008.95,2008.88,2008.98,2009.54,2009.48,2009.36,2009.39,2009.49,2009.67,2010.31,2010.28,2010.4,2012.36,2010.08,2010.07,2009.5,2009.37,2009.29,2009.22,2009.05,2008.88,2008.72,2008.57,2008.47,2008.32,2008.09,2007.91,2007.7,2007.46,2007.22,2007.05,2007.64,2007.16,2006.57,2006.23,2006.16,2006.26,2006.25,2006.26,2007.09,2007.72,2006.37,2005.93,2005.33,2004.42,2004.07,2003.91,2004.23,2000.42,1998.64,2004.5,2003.22,2003.02,2002.88,2002.81,2002.93,2003.2,2003.07,2002.68,2002.51,2002.51,2002.47,2002.47,2002.44,2002.31,2002.22,2001.17,2002.07,2001.73,2001.62,2001.52,2001.44,2001.38,2001.32,2001.27,2001.23,2001.2,2001.18,2001.12,2001.12,2001.17,2001.13,2001.29,2000.97,2001.43,2000.43,2000.92,2000.87,2000.9,2001.19,2000.94,2000.75,2000.73,2001.07,2000.71,2000.68,2000.64,2001.21,2000.63,2000.7,1997.94,2001.86,2000.57,2000.58,2000.74,1999.45,1997.15,2002.12,1996.52,2002.25,2002.83,2000.86,2000.7,2000.61,2000.52,2000.48,2000.59,2002.99,2000.75,2000.45,2000.43,2000.45,2001.18,1997.17,2001.09,2000.47,2000.46
2002.64,2001.25,2000.02,2001.35,2001.82,2001.41,2001.66,2001.75,2001.92,2001.62,2001.38,2001.63,2001.34,1999.24,2001.05,2000.88,1999.05,2000.81,2001.41,2000.17,2000.82,2000.72,2000.68,2000.68,2000.69,2000.76,1998.5,2000.71,2000.7,2001.23,2001.77,1999.55,2000.78,1999.74,2000.78,2000.66,2000.62,2000.62,2000.64,2000.82,2001.29,2000.67,2000.62,2000.74,2001,2000.79,2000.62,2000.78,1999.78,1998.29,2001,2000.63,2000.66,2000.58,2000.57,2000.59,2000.67,2000.82,2000.66,2000.69,2000.74,2000.82,2001.04,2001.14,2001.04,2001.02,2001.05,2001.14,2001.89,2001.96,2003.31,2009.56,1999.6,1996.58,1999.56,2009.49,2003.22,2001.77,2001.74,2001.34,2001.33,2000.18,2002.25,2001.98,2000.1,2000.89,2001.12,2002.23,1999.47,2001.01,1999.47,2000.82,2001.76,1998.91,2001.37,2001.61,2001.79,2001.99,2002.09,2002.04,2001.93,2001.94,2001.75,2002.29,2001.76,1994.52,1996.93,2005.03,2004.24,2008.23,2006.63,1996.42,1990.98,1989.55,1991.96,1998.51,2010.12,2006.45,2003.68,2001.57,2001.27,2001.7,2001.19,2001.07,2001.5,2000.83,2000.53,2000.44,2000.41,2000.59,2000.41,2000.38,2000.62,2001.61,2000.93,2000.47,2000.47,2000.48,2000.54,2000.67,1999.21,2000.85,2000.62,2000.79,2001.24,2000.47,2006.55,1998.6,1991.24,1989.59,1993.48,2003.89,2004.19,2002.96,2005.92,2002.65,2002.81,2001.04,2000.84,2000.87,2000.82,2000.87,2001.16,2001.38,2002.33,1997.48,2000.38,2003.27,2003.45,2009.89,2006.29,2014.97,2008.78,1997.82,1990.78,1985.95,1984.32,1985.44,1994.62,1996.17,2006.41,2018.29,2009.33,2005.73,2004.23,2003.13,2002.84,1999.68,2001.63,2001.44,2001.35,2001.3,2001.27,2001.32,2002.31,2002.12,2001.26,1999.42,1999.87,2001.14,2001.54,2001.54,2001.87,2002.16,2001.87,2001.69,2001.7,2001.75,2001.8,2001.86,2002.13,2003.76,2002.54,2003.03,2002.63,2002.9,1999.37,2006.63,2003.05,2002.84,2003.47,2003.88,2003.19,2003.17,2003.28,2003.42,2003.7,2003.89,2003.94,2004.26,2004.45,2004.38,2004.52,2004.69,2004.85,2005.03,2005.23,2005.52,2007.2,2002.96,2006.89,2006.45,2006.53,2006.78,2006.68,2007.15,2007.43,2007.84,2008.51,2006.66,2008.38,2008.1,2008.18,2008.69,2009.65,2006.66,2009.33,2008.67,2008.75,2008.99,2010.9,2002.96,2003.04,2008.6,2005.71,2009.44,2008.8,2008.68,2008.86,2007.42,2008.63,2008.2,2008.06,2007.96,2007.88,2007.81,2007.74,2007.61,2007.4,2007.11,2006.84,2006.76,2003.44,2003.9,2007.27,2005.91,2005.85,2006.11,2006.32,2006.67,2006.53,2007.94,2008.24,1998.75,2005.8,2004.61,2003.92,2003.72,2003.92,2003.8,2001.83,2003.88,2003.1,2002.88,2002.76,2002.67,2002.6,2002.56,2002.47,2002.37,2002.29,2002.24,2002.21,2002.6,2003.54,2002.09,2002,2003.35,2001.89,2002.31,2002.14,1999.75,2001.42,2001.34,2001.29,2001.25,2001.22,2001.3,1999.75,2001.15,2001.14,2001.12,2001.07,1999.76,2000.97,2000.96,2001.84,2000.96,2000.85,2001.04,1997.49,2002.42,2000.77,2000.74,2001.38,2000.7,2000.64,2000.63,2001.1,2000.67,2000.66,2000.74,2000.61,2000.55,2000.56,2000.63,2001.02,2001.35,2001.32,2000.59,2001.25,2001.67,2000.85,2001.81,2002.51,2000.77,2000.51,2000.48,2000.49,2000.74,1999.82,2001.07,2000.6,2000.54,2001.38,1997.96,2000.6,2001.09
2001.56,2001.26,2001.67,2001.31,2001.2,2001.2,2001.34,2000.49,2001.42,2001.25,2001.15,2001.44,2001.06,2000.96,2000.87,2000.82,2000.81,2000.81,2000.88,2000.99,1999.74,2000.94,2000.71,2000.69,2000.69,2000.74,2000.71,2000.68,2000.72,2003.19,1998.27,2001.09,2000.7,2000.72,2000.66,2000.64,2000.64,2000.64,2000.68,1999.25,2001.09,2000.75,2000.67,2000.61,2000.63,2000.63,2000.59,2000.66,2001.78,2001.82,2000.75,2000.82,2000.36,2000.89,2000.6,2000.62,2000.92,1999.26,2000.76,2000.78,2000.87,2001.05,2002.71,2000.25,2001.6,2001.32,2001.31,2001.38,2001.61,2002.29,2005,2001.43,1992.55,1989.81,1992.5,2001.33,2003.08,2001.99,2001.25,2001.16,2002.2,2000.79,2003.73,2002.32,2001.9,1999.96,2001.23,2001.87,2000.73,2000.67,2000.73,2000.7,2000.82,2000.96,2001,2000.74,2001.22,2001.29,2001.4,1999.92,2001.28,2001.23,2001.31,2000.54,2002.8,2003.05,2005.4,2003.45,2004.85,2011.7,2000.74,1991.13,1985.95,1984.59,1986.89,1993.15,2004.24,2008.77,2001.87,2003.7,2001.35,2001.06,2000.85,2000.7,2000.61,2000.52,2000.45,2000.4,2000.39,2000.92,2000.43,2000.38,2000.58,2000.49,2000.5,2000.38,2000.74,2000.77,2001.32,2003.53,2000.98,2000.63,2000.6,2000.76,2001.24,2002.21,2004.31,2003.97,1993.97,1994.25,1998.39,2009.72,2003.16,2002.63,1997.21,1994.79,2000.88,2001.26,2000.83,2000.23,2000.92,2000.85,2000.96,2001.14,2001.57,2002.99,2003.72,2002.45,2004.46,2005.87,2010.25,2016.92,2002.1,1991.67,1984.95,1980.29,1978.71,1979.75,1983.45,1989.98,1999.81,2009.79,2011.86,2009.09,2004.27,2003.1,2002.43,2002.03,2001.73,2001.5,2001.37,2001.3,2001.27,2001.36,2000.47,2000.45,2001,2001.97,2001.67,2002.37,2002.55,2001.55,2000.66,2002.03,2002.36,2001.61,2001.66,2001.8,2001.76,2001.83,2002.08,2000.5,2002.49,2002.17,2003.46,2002.03,2004.25,2004.53,2002.7,2002.9,2000.86,2000.67,2003.32,2003.04,2003.14,2003.27,2003.44,2003.69,2004.08,2004.31,2004.24,2004.7,2004.35,2004.44,2004.59,2004.77,2004.95,2005.2,2006.86,2003.34,2006.5,2006.33,2005.67,2007.12,2006.42,2006.67,2008.03,2008.24,2007.34,2007.69,2006.21,2007.46,2007.6,2007.77,2008.05,2008.43,2008.61,2008.44,2008.27,2008.25,2009.27,2005.05,2006.72,2010.13,2005.06,2009.36,2008.58,2008.11,2008.47,2004.87,2008.24,2007.64,2007.53,2007.49,2005.86,2007.66,2007.84,2007.95,2007.67,2007.12,2006.63,2006.31,2006.21,2006.5,2006.44,2005.65,2005.75,2006.26,2007.91,2005.1,2010.06,2009.48,2007.11,1999.94,2004.91,2004.33,2003.75,2003.54,2003.47,2003.64,2003.54,2003.65,2004.55,2002.99,2002.76,2002.6,2002.47,2002.52,2002.39,2002.22,2002.15,2002.09,2002.05,2002.38,2001,2001.98,2001.99,2002.11,2001.74,2001.61,2001.53,2001.48,2001.39,2001.32,2001.27,2001.24,2001.31,2001.64,2001.45,2000.26,2001.9,2002.23,2001.19,2001.07,2001.05,2001.18,2001.01,2000.89,2000.84,2000.89,2001.49,2001.09,2000.85,2000.74,2001.91,1998.8,2000.63,2000.61,2000.68,2001.9,2001.67,2000.66,2000.56,2000.6,2000.58,2000.83,2001.09,1998.93,2000.66,2000.67,2000.62,2001.02,2000.74,2000.78,1996.91,2001.14,2000.56,2000.49,2000.46,2000.54,2000.56,2000.7,2000.53,2000.44,2000.58,2000.95,2001.03,1998.4
2001.2,2001.08,2001.44,2001.54,2001,2001.2,2001.12,2001.13,2001.16,2001.13,2001.09,2001.09,2001,2000.92,2000.88,2000.84,2000.87,2002.24,2000.89,2001.01,1999.57,2000.97,2000.74,2000.72,2000.73,1999.85,2000.71,2000.69,2000.7,2000.87,2001.27,2000.73,2000.67,2000.67,2000.67,2000.69,2000.71,2000.73,2000.89,2001.56,2001.09,1998.93,2001.51,2000.63,2001,2000.38,2000.62,2000.64,2000.25,2001.38,2001.24,2000.64,2000.66,2000.9,2000.65,2000.67,2000.72,2000.8,2000.84,2000.92,2001.06,2001.3,2003.21,2000.7,2003.31,2002.03,2001.74,2001.74,2001.91,2002.58,2005.62,2000.11,1991.39,1988.69,1991.34,2000.01,2005.41,2002.06,2001.28,2001.34,2001.96,1995.12,1999.46,2001.17,2001.4,2001.05,2000.72,2000.58,2000.57,2000.59,2000.59,2000.62,2000.67,2000.73,2000.84,2000.92,2000.91,2000.96,2001.01,2001.05,2000.99,2000.97,2001.02,2001.19,2001.44,2001.85,2002.19,2002.84,2004.95,2013.04,1999.35,1989.87,1984.74,1983.38,1985.66,1991.91,2003.16,2009.73,2004.09,2002.2,2001.34,2000.96,2000.91,1999.42,2000.54,2000.48,2001.16,2000.41,2000.38,2000.37,2000.37,2000.41,2001.07,2000.48,2000.52,2000.9,2002.37,1999.28,2001.77,2003.62,2000.62,2000.57,2000.58,2000.75,2001.73,2001.85,2002.41,2005.2,2007.67,2005.64,2008.92,2003.93,2002.1,2003.27,1999.81,1996.72,2004.94,2001.13,2001.35,2001.02,2000.81,2000.85,2000.97,2001.24,2002.41,2001.82,2003.76,2004.81,2004.07,2006.15,2011.21,2013.04,1998.69,1988.96,1981.58,1977.44,1975.86,1976.83,1980.43,1986.83,2010.34,2010.01,2013.55,2006.3,2004.52,2003.17,2000.41,1998.1,2000.54,2001.75,2001.84,2001.46,2001.26,2001.33,2001.97,1998.7,1999.22,2001.89,2001.46,2001.75,2000.7,2001.5,2001.65,2001.71,2001.55,2001.54,2001.62,2001.92,2002.35,2002.06,2001.88,2002.03,2001.98,2002.02,2002.27,2004.26,2002.54,2002.46,2002.48,2002.67,2005.89,2005.65,2003,2002.91,2003,2003.14,2003.35,2004.02,2004.66,2004.02,2005.68,2004.8,2002.47,2004.34,2004.49,2004.69,2004.9,2004.94,2005.23,2005.71,2005.79,2002.6,2005.84,2006.23,2006.06,2006.95,2005.06,2004.51,2006.84,2007.62,2006.8,2006.91,2007.21,2007.26,2007.45,2006.42,2009.89,2007.97,2007.69,2007.55,2007.8,2008.4,2007.26,2008.34,2007.11,2008.5,2007.95,2007.95,2007.73,2007.56,2007.28,2007.17,2007.06,2007.13,2004.76,2008.08,2009.96,2012.57,2010.98,2008.11,2006.69,2006.06,2006.33,2005.85,2005.44,2005.44,2005.8,2007.34,2010.54,2002.35,2001.22,2006.9,2008.29,2006.33,2005.08,2003.05,2003.61,2003.37,2003.24,2003.12,2003.01,2003.35,2004.92,2003.7,2001.72,2002.48,2002.39,2002.28,2002.2,2002.12,2002.06,2001.99,2001.94,2001.93,2001.92,2002.93,2003.44,1998.09,2001.96,2001.58,2001.54,2001.85,2001.61,2001.49,2001.31,2002.12,2001.98,1997.87,2002.39,2001.53,2000.22,1997.4,2002.25,2001.28,2001.51,1997.33,2001.11,2000.89,2000.85,2000.87,2000.88,2001.7,2001.75,2000.7,2000.66,2000.65,2000.61,2000.61,2000.74,1999.87,1999.88,2000.93,2000.59,2000.56,2000.65,2002.03,2000.58,2000.63,2000.55,2000.53,2000.51,2000.53,2001.74,2001.49,2001.48,2000.9,2000.72,2000.59,2000.52,2000.56,2000.77,1997.61,2000.48,2000.43,2000.45,2000.54,2001.32,2000.74
2001.11,2001.17,2001.19,2001.43,2001.64,2001.16,2001.17,2001.1,2001.48,2002.08,2001.38,2000.6,2001.31,2000.96,2001.5,2000.92,2000.91,2000.4,2000.99,2000.84,2000.85,2000.8,2000.77,2000.77,2000.84,2000.86,2000.75,2000.72,2000.71,2000.79,2000.97,2000.72,2000.7,2000.7,2000.74,2001.13,2004.58,2000.95,2001.69,1996.63,2002.3,2000.95,2000.74,2000.65,2000.74,2000.92,2000.66,2000.67,2001.12,1998.73,2000.92,2000.66,2000.69,2000.76,2000.76,2000.75,2000.78,2000.86,2000.97,2001.13,2002.04,2001.91,2001.93,2002.3,2002.86,2003.13,2003.66,2002.36,2002.33,2002.72,2004.55,2005.19,1995.82,1992.96,1995.78,2005.08,2004.8,2001.84,2001.26,2002.05,2003.31,1998.66,1998.86,2001.66,2000.76,2000.59,2000.54,2000.52,2000.58,1999.52,2000.55,2000.56,2000.6,2000.66,2001.11,2001.06,2000.76,2000.79,2001.04,2002.22,2000.96,2000.83,2000.93,2001.81,2001.27,2001.36,2001.74,2002.53,2004.47,2010.59,2002.25,1992.49,1987.22,1985.82,1988.13,1994.42,2005.49,2005.99,2003.79,2002.02,2001.29,2000.96,1998.58,2000.68,2000.51,2000.47,2001.51,2000.42,2000.37,2000.37,2000.37,2000.44,2000.47,2000.46,2000.89,1999.28,1998.73,1995.97,2002.09,1999.45,2000.8,1998.78,2000.6,2000.69,2000.7,2001.57,2001.42,2002.1,2002.92,2003.21,2002.65,2001.89,2001.62,2001.89,2001.81,2002.04,2002.04,2000.06,2001,2000.86,2000.82,2000.88,2001.47,2001.18,2002.33,2002.05,2003.21,2004.04,2004.1,2006.2,2011.36,2012.59,1998.32,1988.49,1981.52,1976.32,1976.04,1976.51,1980.07,1986.48,1996.12,2009.38,2013.44,2007.14,2001.12,2003.13,2002.49,1998.08,1998.34,2002.18,2002.35,2001.59,2001.26,2000.55,2001.71,2003.37,1998.86,2001.9,2001.41,2001.46,2001.45,2001.39,2001.91,2002.17,2001.47,2001.49,2001.55,2001.54,2000.46,2002.1,2002.08,2003.68,2001.98,2001.96,2002.24,2003.17,2002.47,2002.9,2003.05,2002.46,2002.6,2002.83,2003.35,2002.79,2002.88,2003.02,2003.25,2004.7,1999.91,1999.6,2007.01,2003.57,2004.95,2004.21,2002.25,2004.11,2001.23,2005.17,2002.15,2003.2,2005.31,2004.25,2007.09,2005.56,2005.74,2004.43,2006.44,2006.44,2005.14,2006.28,2006.33,2006.82,2006.79,2006.99,2007.09,2004.37,2007.55,2006.94,2006.89,2006.93,2007.07,2007.67,2007.48,2007.61,2007.31,2007.7,2011.06,2007.32,2008.56,2007.13,2006.79,2005.95,2007.31,2006.75,2007.5,2009.86,2001.55,1996.5,1998.5,2008.42,2007.15,2005.96,2004.45,2005.48,2005.16,2005.24,2005.86,2009.47,2001.8,1995.16,1994.14,1999.16,2004.23,2002.43,2004.41,2004.12,2003.44,2003.27,2003.02,2002.95,2002.83,2002.75,2002.69,2003.37,2001.5,2003.14,2002.29,2002.18,2002.1,2002.06,2000.51,2001.92,2002.01,2002.77,2001.98,2002.05,2002.19,2003.3,2001.73,2000.26,2001.99,2000.96,2002.46,2003.2,2001.38,2000.57,2001.45,2002.71,2001.62,2001.42,1998.79,1996.13,2003.06,2002.9,2003.05,2002.15,2001.14,2000.94,2000.96,2001.31,2001.65,2001.04,2000.8,2000.68,2000.66,2000.64,2000.6,2000.59,2000.65,2001.17,2000.69,2002.25,2000.65,2000.53,2000.54,2000.59,2001.06,2002.43,2000.64,2000.58,2000.52,2000.52,2000.59,2000.79,2001.49,2002.07,2001.83,2000.99,2000.68,2001.26,1998.22,1999.45,2000.58,2000.45,2000.47,2000.62,2001.09,2001.07
2001.17,2001.25,2001.34,2001.43,2001.35,2001.22,1999.48,2001.13,2001.2,2001.31,2002.62,2004.64,2002.6,2001.02,2000.95,2000.91,2000.89,2000.92,1999.1,2001,2000.99,2001.28,2000.99,2000.87,2002.03,1999.88,2000.9,2000.76,2000.74,2000.78,2001.12,2001.04,2000.75,2000.77,2000.75,2001.25,2003.18,2002.49,2001.57,2002.23,2000.69,2000.92,2000.76,2000.81,2000.68,2000.71,2001.17,2001.37,2000.73,2000.72,2000.69,2000.73,2001.64,2000.6,2001.46,2000.99,2000.91,2001.03,2001.64,2001.39,2002.13,2005.13,2003.36,2003.1,2003.6,2005.62,2004.23,2003.47,2003.09,2002.98,2003.98,2005.84,2007.13,2003.74,2007.08,2005.52,2002.71,2001.49,2001.18,1999.93,2001.06,2003.47,2001.47,2000.86,2000.62,2000.54,2000.51,2000.52,1999.13,2000.55,2000.52,2000.52,2000.55,2000.92,1999.41,2001.55,2000.7,2000.74,2001.17,1998.29,2000.93,2000.9,2000.97,1998.51,2001.79,2001.43,2001.62,2002.32,2005.1,2007.33,2009.95,1999.38,1993.69,1992.16,1994.59,2001.29,2013.29,2006.6,2003.1,2001.81,2001.21,2000.91,1999.67,2000.62,2000.5,2000.45,2000.63,2000.4,2000.37,2000.37,2000.46,2000.49,2000.53,2000.73,2000.52,2000.62,2001.21,2002.29,1998.59,2000.88,2000.77,2000.98,2000.57,2000.67,2000.72,2000.79,2000.94,2001.18,2001.4,2001.48,2001.38,2001.25,2002.82,1998.2,2001.04,2000.99,2000.19,2002.12,2000.22,2001.03,2000.62,2001.02,2001.06,2001.16,2001.45,2002.01,2001.58,1998.87,2004.39,2005.85,2010.31,2015.54,1999.34,1990.53,1981.97,1985.85,1978.4,1979.08,1982.39,1988.97,1997.9,2012.14,2012.02,2006.62,2004.22,2002.98,2002.3,2002.62,2002.08,2001.64,2001.34,2001.25,2001.21,2001.34,2001.58,2002.12,2002.66,2001.73,2002.3,2001.76,2001.38,2001.36,2001.4,2001.44,2001.46,2001.5,2001.72,2001.79,2001.84,2001.69,2002.37,2000.27,2002.79,2002.21,2001.95,2002.07,2002.57,1999.4,2003.04,2002.34,2002.43,2000.65,2002.77,2002.7,2002.81,2002.94,2003.13,2003.63,2007.23,2005.95,2003.23,2003.26,2004.3,2004.05,2006.14,2000.93,2005.32,2004.54,2004.54,2004.61,2004.74,2004.96,2005.05,2005.8,2007,2005.51,2005.52,2005.74,2007.46,2005.83,2005.98,2006.99,2007.3,2007.85,2008.47,2006.7,2006.52,2006.44,2006.4,2006.44,2006.52,2006.65,2006.61,2006.66,2006.82,2008.25,2002.08,1999.05,2005.05,2007.07,2006.54,2006.69,2006.26,2006.36,2007.18,2012.98,1996.04,1991.42,1993.26,2002.19,2007.65,2005.77,2006.12,2005.15,2004.94,2005.02,2005.67,2009.28,2001.53,1994.24,1993.23,1998.19,2011.12,2004.19,2004.07,2003.57,2003.39,2003.17,2003.68,2002.81,2002.76,2002.27,2002.52,2002.48,2002.52,2002.33,2002.22,2002.7,2002.03,2001.96,2001.97,2001.98,2002.04,2001.6,1999.2,2002.03,2001.72,2001.65,2001.54,2001.61,2001.88,1998.91,2001.8,1999.48,2001.43,2001.78,2001.21,2001.18,2001.15,2001.16,2001.4,2001.76,2002.07,1999.82,2000.74,2001.67,2001.36,2001.03,2002.29,2001.48,1995.35,2001.94,2000.83,2000.69,2001.01,2001.92,2000.59,2000.59,2000.62,2001.12,1996.64,1999.91,2000.69,2000.53,2000.78,2000.52,2001.36,2000.37,2001.53,2001.91,2000.72,2000.58,2000.62,2001.1,1990.6,1994.36,1997.91,2002.42,2000.95,1998.57,1998.76,1999.26,2000.6,2000.47,2000.52,2001.09,1998.18,1998.9
2001.32,2000.47,2002.17,1999.43,2002.95,2001.56,2001.21,2001.11,2001.13,2001.44,1999.99,1998.27,2001.81,2001.04,2000.97,2000.97,2001,2000.98,2000.95,2001.02,2001.06,2000.92,2000.88,2000.95,2002.94,2000.69,2000.91,2000.78,2000.79,2001.17,1999.82,2001.33,2001.06,2000.83,2001.02,2002.06,2000.16,1996.42,2002.27,2000.69,2001.09,1998.75,2001,1998.91,2000.73,2000.82,1999.82,2000.4,2000.82,2000.72,2000.74,2001.6,2000.54,1999.62,2001.02,2001.27,2001.45,2001.26,2001.42,2001.69,2002.17,2002.97,2003.97,2005.23,2006.49,2007.22,2006.94,2005.92,2005.88,2003.73,2003.47,2003.46,2004.41,2003.1,2003.61,2002.52,2001.68,2001.19,2000.97,2001.13,2001.18,2000.93,2000.75,2000.63,2000.55,2000.51,2000.49,2000.51,2000.66,2000.65,2000.53,2000.51,2000.52,2000.65,2000.7,2000.68,2000.94,1999.08,2000.87,2000.82,2000.68,2002.42,2001.01,1999.3,2001.91,2002.84,2002.12,2002.98,2002.74,2005.55,2009.43,2011.82,2005.06,2003.21,2005.92,2013.51,2007.09,2003.89,2002.44,2001.83,2001.33,2000.98,2000.8,2000.58,2000.5,2000.44,2000.4,2000.38,2000.38,2000.39,2000.46,2000.87,2001.3,1997.59,2000.63,2000.46,2000.51,2000.59,2001.02,1999.14,1998.96,2000.32,2000.79,2000.76,2000.65,2000.65,2000.74,2000.98,2001.72,2001.36,2001.18,2001.73,2001.41,2001.01,2000.75,2000.77,1998.99,2000.84,2000.25,2001.03,2001.67,2001.19,2001.08,2001.35,2001.26,2001.66,2003.81,2000.87,2003.89,2005.19,2008.6,2013.89,2007.45,1995.81,1989.09,1983.61,1982.79,1993.06,1987.48,1994.03,2004.08,2018.37,2009.78,2005.78,2003.83,2002.76,2002.14,2001.79,2001.55,2001.39,2001.27,2001.2,2001.17,2001.28,2000.89,2001.32,2001.46,1999.58,1999.95,2001.9,2001.38,2001.39,2001.45,2002.14,2002.28,2001.57,1999.98,2002.13,2002.21,2001.61,2001.7,2001.88,2001.94,2002.04,2001.86,2001.97,2002.26,2002.54,2002.24,2002.24,2002.31,2002.48,2002.52,2002.64,2002.78,2003.05,2004.97,2003.24,2003.49,2003.75,2003.99,2004.52,2004.5,2004.31,2004.87,2004.58,2002.53,2002.73,2004.29,2004.67,2004.69,2004.53,2004.61,2004.89,2006.06,2005.14,2005.31,2005.49,2005.49,2005.48,2005.72,2007.53,2002.26,2001.35,2006.3,2006.21,2006.07,2003.11,2006.03,2006.03,2006.11,2006.21,2006.28,2006.34,2006.57,2007.58,2003.17,2000.07,2006.22,2006.61,2006.03,2005.92,2005.83,2006.02,2006.71,2011.18,1997.54,1992.82,1994.69,2003.87,2007.11,2005.42,2004.99,2006.64,2005.19,2004.9,2005.23,2007.08,2007.24,1999.37,1998.31,2003.72,2008.07,2004.77,2003.8,2003.52,2002.17,2002.99,2002.81,2002.67,2002.58,2002.53,2002.4,2002.37,1996.71,2003.01,2002.21,2002.18,2001.97,2001.9,2002.15,1999.23,2001.83,2001.8,2003.14,2002.23,2003.05,2002.11,2001.66,1998.91,2001.73,2001.44,2001.3,2001.26,2001.22,2001.31,2001.57,2001.14,2001.09,2001.12,2001.2,2001.36,2001.95,2000.9,1997.14,2004.35,2001.64,2001.33,2001.33,2001.04,1998.31,2001.63,1998.94,2000.81,2000.65,2000.62,2000.59,2000.57,2000.59,2000.74,2001.71,2001.22,2000.59,2000.51,2000.51,2000.52,2000.54,2000.71,1999.25,2001.29,1998.32,2000.84,2000.71,2001.13,2003.83,1996.45,1994.57,2004.31,1999.63,2000.76,2000.85,2000.78,2000.52,2000.49,2000.55,2001.09,1998.86,1999.6
2001.63,2001.95,1997.96,1990.35,1993.34,2003.04,2001.38,2001.18,2001.28,1998.73,2002.02,2002.21,2001.23,2001.05,2001.04,2001.23,2002.12,2001.68,2001.09,2001.01,2001.22,2001.55,2001,2000.7,2001.21,2000.98,2000.85,2000.82,2000.84,2001.29,1998.85,2001.63,2001.17,2000.93,2001.16,2001.97,1998.6,1998.23,2002.22,2001.33,2000.9,2000.86,2000.8,2000.77,2000.75,2000.83,2000.04,2001.45,2001.49,2000.9,2000.84,2001.07,2001.17,2001.13,1999.41,2001.48,1997.84,2001.56,2001.63,2002.31,2002.97,2004.32,2006.76,2010.72,2015.17,2012.25,2013.61,2012.7,2008.28,2005.43,2003.87,2003.13,2001.76,2002.93,2002.27,2000.1,2001.45,2001.01,2000.84,2000.78,2000.76,2000.68,1998.74,2000.57,2000.52,2000.49,2000.48,2000.53,1998.14,1995.41,2000.71,2000.5,2000.51,2000.69,2000.64,2000.74,1998.37,1999.41,2001.51,2001.31,2000.61,2000.74,2000.37,2000.94,2003.84,1996.14,2001.93,2002.56,2004.2,2002.52,2000.48,2007.16,2009.22,2009.39,2003.71,2005.7,2003.84,2002.64,2001.27,1999.9,2002.02,1998.8,2000.68,2000.58,1999.15,2000.54,2000.4,2000.38,2000.39,2000.45,2000.57,2000.66,2002.27,2002.82,2000.57,2000.45,2000.44,2000.44,2000.48,2001.07,2001.32,2000.95,1997.8,2000.69,2001.12,2000.73,2000.71,2001.12,1999.01,2001,2001.65,2000.11,2001.99,2000.92,2000.64,2000.65,1999.88,2000.72,2001.71,2000.75,2000.94,2001.4,2001.17,2001.66,2001.22,2001.45,2001.92,2002.48,2003.1,2004.36,2006.74,2015.47,2015.72,2004.34,1996.59,1992.17,2001.22,1991.9,1995.47,2002.47,2013.19,2013.03,2007.5,2004.81,2003.36,2002.51,2001.99,2001.66,2001.46,2001.32,2001.23,2001.17,2001.14,2001.14,2001.18,2001.95,1998.83,2001.47,2001.44,2001.46,2001.47,2001.61,2001.48,2002.11,2002.64,2001.82,2001.56,2001.51,2001.52,2001.54,2001.65,2002.67,2002,2001.81,2001.82,2002.1,2002.05,2001.25,2002.25,2002.17,2002.23,2002.34,2002.48,2002.7,2002.96,2003.32,2002.48,2003.17,2003.29,2001.69,2003.89,2004.33,2004.99,2005.25,2005.2,2003.29,2002.51,2004.03,2004.19,2001.41,2003.01,2004.34,2004.33,2004.46,2004.67,2005.1,2006.27,2006.2,2006.11,2005.31,2005.44,2007.55,1999.9,1999.92,2007.7,2005.72,2005.57,2005.76,2005.66,2005.69,2005.86,2006.2,2006.57,2006.42,2007.21,2005.96,2007.47,2011.17,2006.84,2004.31,2005.68,2005.52,2005.75,2003.34,2006.02,2006.75,2006.7,2001.17,2003.34,2009.57,2005.97,2005.25,2004.83,2002.77,2005.46,2006.04,2004.99,2005.34,2007.17,2011.01,2011.15,2008.25,2005.27,2004.03,2003.71,2003.96,2003.78,2003.03,2002.71,2002.56,2002.46,2002.38,2002.33,2002.33,2000.99,1996.55,2002.41,2002.19,2002.1,2001.89,2001.85,2002.1,2001.96,2000.84,2002.16,2002.4,1996.86,2001.17,2001.75,2002.26,2001.38,2001.26,2001.21,2001.71,2001.74,2002.01,1998.5,2001.19,2001.09,2001.15,2001.33,2001.55,2002.07,2003.03,2003.71,2003.61,2000.28,2001.72,2001.12,2001.68,2001.18,2000.89,2000.85,2000.73,2000.66,2000.61,2000.58,2000.56,2000.56,2000.75,2000.98,2000.97,2000.52,2000.49,2000.47,2000.47,2000.48,2000.53,2000.71,2000.89,2001.88,2001.75,2001.11,2001.06,2000.16,1998.18,2000.16,2001.93,2000.87,2000.58,2000.53,2000.52,2000.51,2000.54,2000.6,2000.72,2001.27,2001.2
2003.18,2000.2,2000.14,1992.1,1995.24,1998.3,2001.6,2001.4,2002.29,2001.49,2001.26,2001.2,2001.13,2001.27,2001.3,2001.9,1997.92,2000.59,2001.36,2001.21,2001.53,2001.79,2001.45,2001.25,1998.32,2001.1,2000.89,2000.95,2000.87,2000.95,2001.38,1996.09,1998.05,2001.16,2001.53,2001.78,2001.61,2001.68,2000.14,2001.01,2000.9,1998.89,2000.85,2000.8,2000.82,2000.85,2001.09,2001.15,2001.59,2000.98,2001.04,2001.26,2001.41,2001.36,2001.36,2002.01,2002.41,2001.57,2001.92,2001.58,2004.32,2006.97,1994.68,2006.95,2000.4,1997.88,1999.04,2004.03,2013.43,2009.04,2005.49,2003.56,2002.24,2001.34,2001.73,2001.7,2001.61,2000.91,2000.79,2000.88,1998.94,2000.84,2000.59,2000.65,2000.55,2000.49,2000.48,2000.53,2001.71,1996.8,2000.99,2000.5,2000.52,1998.42,2000.72,1998.78,2001.8,2001.57,1999.55,2000.72,2000.56,2000.57,2000.62,2000.77,2001.85,1999.38,2003.23,2002.1,2005.32,1995.15,1993.38,1999.1,2002.65,2004.35,2003.99,2003.29,2001.28,2002.41,1999.34,1997.9,2000.41,2000.97,2000.61,2000.64,2000.23,2000.48,2000.4,2000.4,2000.45,2000.73,2004.03,2002.5,2004.34,2002.45,2000.8,2000.61,1998.96,2000.5,2000.62,2000.57,2000.49,2000.52,2000.61,2000.58,2002.42,2000.93,2000.57,2001.27,2001.26,2000.76,2002.03,1997.47,2001.3,2000.84,2000.58,2000.58,2000.73,2001.07,2000.92,2000.71,1999.39,2000.88,2001.32,1998.03,2001.26,2001.32,2001.61,2002.04,2002.65,2003.6,2005.39,2008.48,2010.29,2016.82,2008.39,2003.85,2002.9,2003.39,2016.51,2015.21,2014.02,2008.58,2005.62,2003.91,2002.88,2002.25,2001.83,2001.56,2001.38,2001.26,2001.18,2001.14,2001.11,2001.11,2001.14,2001.99,2001.97,2001.37,2000.68,2001.83,2002,2002.11,2001.57,2001.9,2003.47,1998.21,2001.79,2001.48,2001.48,2001.52,2001.65,2002.22,2002.06,2001.71,2001.78,2000.48,2002.23,2002.17,2002.16,2002.16,2002.2,2002.32,2002.57,2003.19,2004.49,2004.85,2003.76,2003.25,2003.31,2003.78,2004.71,2007.18,2000.13,2004.49,2006.37,2004.55,2004.08,2003.8,2003.87,2005.3,2004.75,2004.1,2004.15,2004.37,2004.59,2005.79,2001.51,1998.98,2006.12,2005.26,2005.04,2005.71,2008.99,2008.9,2005.79,2005.72,2005.41,2005.02,2007.01,2005.55,2005.89,2006.95,2006.09,2008.25,2007.1,2006.71,2005.9,2005.82,2005.81,2006.08,2006.02,2005.5,2005.28,2005.38,2005.3,2005.79,2006.59,2007.82,2000.61,2003.27,2005.27,2001.93,2004.72,2000.29,1999.94,1999.6,2005.57,2004.48,2004.77,2005.09,2005.08,2004.58,2003.96,2003.61,2004.44,2002.64,2007.47,2003.57,2002.63,2002.46,2002.36,2002.41,2001.45,2002.33,2002.91,2000.79,2002.7,2000.48,2001.5,2002.24,2001.82,2001.91,2001.79,2001.85,2001.76,2001.97,2004.21,2002.11,2001.54,2001.7,2001.31,2001.24,2001.19,2001.37,2001.17,2001.2,2001.24,2001.1,2001.11,2001.26,2001.28,2002.3,2004.15,2007.25,2007.4,1998.15,1999.34,2002.2,2001.11,2000.89,2000.81,2000.79,2001.39,2002.1,2001.43,2000.81,2000.62,2000.55,2000.54,2000.64,2000.58,2000.52,2000.49,2000.48,2000.46,2000.46,2000.47,2000.49,2000.58,2001.09,1997.77,1994.56,2003.19,1999.94,2001.08,2001.43,2001.31,1998.52,1998.44,2000.58,2000.63,2000.57,2000.59,2000.74,2001.05,2000.73,2000.77,2000.76
1997.96,2000.67,2003.49,2003.82,2004.09,2002.17,2001.49,1999.95,1997.65,2002.36,2001.49,2001.58,2001.29,2002.07,2001.83,2001.67,2002.54,2005.69,2001.39,2001.7,2003.59,1999.04,2004.88,2001.94,2001.32,1999.44,2000.97,1999.79,2000.93,2000.96,2001.55,1998.1,1999.25,2001.98,2001.14,2001.01,2001.04,2001.1,2001.43,2001,2000.94,2000.05,2000.94,2000.93,2001.16,2001.36,2001.37,2001.33,2000.03,2002.34,2001.61,2001.15,2004,2002.94,2001.87,2001.66,2001.46,2001.64,2002.14,2003.2,2005.31,2011.07,2006.97,1996.76,1990.81,1988.49,1989.56,1994.11,2002.62,2015.29,2003.15,2005.27,2002.72,2001.92,2001.46,2001.18,2000.98,2000.83,2000.74,2000.81,2000.99,2000.76,2000.6,1999.28,2000.87,2000.54,2000.48,2000.5,2000.64,2000.93,2000.57,2000.47,2000.48,2000.62,2001.48,2001.27,1998.9,2000.71,2000.57,2000.63,2000.62,2000.53,2000.56,2000.64,2000.83,2001.12,2001.22,2001.81,2005.99,1995.69,1993.9,1999.69,2003.72,2002.57,2002.27,2002.45,1997.73,2002.43,2001.5,2001.37,2001.03,2000.66,2000.53,2000.51,2000.57,2000.43,2000.45,2000.87,2000.73,2000.99,1997.8,1998.98,1995.96,1996.27,2001.36,2001.09,1998.17,2000.99,1998.54,2002.45,2000.5,2001.01,2000.85,2000.71,2000.95,2002.33,2000.61,2003.41,2000.94,2000.69,2000.78,2000.88,2000.67,2000.65,2000.56,2000.55,2000.57,2000.63,2000.63,2000.64,2000.7,2000.93,2001.02,2001.36,2001.14,2001.3,2001.52,1999.72,2001.26,2003.05,2004.42,2001.65,2008,2010.88,2015.38,2002.06,2003.77,2008.01,2017.87,2008.97,2008.35,2005.83,2004.21,2003.15,2002.46,2001.99,2001.67,2001.45,2001.31,2001.21,2001.14,2001.1,2001.08,2001.32,2001.18,2001.14,2001.2,2001.33,2001.85,2003.94,2003.65,2004.03,2003.53,2002.73,2002.34,2002.97,2001.68,2001.49,2001.56,2002.74,2001.56,2001.67,2001.53,2001.66,2001.71,2001.81,2001.93,2002.38,2003.26,2002.48,2002.22,2002.41,2002.84,2005.14,1998.64,1997.79,2005.87,2003.56,2003.48,2004.47,2008.29,2004.43,2002.49,2004.7,2006.54,2004.7,2003.85,2003.65,2003.62,2003.71,2004.54,2004.98,2002.24,2004.48,2004.93,2008.52,2000.21,1997.73,2004.64,2005.03,2004.67,2004.89,2002.95,2005.53,2004.9,2005,2004.96,2005.21,2003.45,2005.4,2006.38,2011.34,2003.49,2002.95,2010.94,2006.84,2005.62,2005.72,2006.47,2003.49,2002.7,2007.04,2005.53,2004.86,2004.79,2004.87,2005.03,2005.59,2005.27,2004.85,2004.44,2005.08,2005.74,2003.93,1999.35,1999.44,2005.28,2005.22,2001.52,2003.56,2003.48,2003.61,2003.72,2003.63,2007.44,1999.23,2003.49,2003.15,2002.54,2002.39,2002.29,2002.33,2002.18,2002.19,2002.34,2000.83,2003.41,2002.64,1999.44,2000.39,2002,2002.36,2002.25,1997.89,2003.45,1999.44,2001.55,2001.43,2001.51,2002.12,2001.57,2001.37,2001.23,1999.46,2001.55,2001.37,2001.13,2001.14,2001.26,2001.29,2001.86,2003.88,2001.6,1995.99,1998.83,1998.57,1999.51,2002.88,2001.87,2000.87,2000.79,2000.82,1998.77,2001.57,2001.47,1997.98,2000.8,2000.56,2000.53,2000.52,2000.51,2000.49,2000.48,2000.47,2000.46,2000.46,2000.46,2000.48,2000.57,2001.17,1996.41,1993.32,2001.59,2001.53,2000.69,2000.64,2000.63,2000.63,2000.58,2000.56,2001.2,2000.71,2000.83,2000.94,2000.99,2001.09,1999.89,2000.86
1998.46,2003.06,2001.9,2002.13,2002.04,2001.55,2001.63,2002.12,2002.12,1998.63,2002.35,1996.66,2001.84,2000.25,2002.03,2001.99,2001.79,2001.46,2001.38,2002.27,1997.54,1993.58,1998.64,2001.95,2001.19,2001.05,2000.98,2000.98,1999.9,2000.99,2001.21,2004.18,2002.47,1998.77,2001.43,2001.02,2001.08,2002.78,2001.18,1998.68,2001.12,2000.98,2000.98,2001.12,2000.15,1998.39,2000.87,2001.09,2001.47,2001.5,2002.88,2001.49,1997.72,2001.71,2003.93,2002.16,2001.66,2001.82,2002.39,2003.62,2006.57,2015.24,2000.44,1990.83,1985.18,1982.96,1983.98,1988.32,1996.37,2009.01,2001.85,2006.67,2002.87,2001.88,2001.4,2001.12,2000.93,2000.8,2000.71,2000.66,2000.65,2001.23,2001.26,2000.76,1997.5,2000.82,2000.5,2000.19,2000.51,2000.49,2000.47,2000.46,2000.48,2000.77,2000.91,2000.6,2000.92,2000.65,2000.54,2001.18,2001.04,2000.52,2000.53,2000.56,2000.63,2000.74,2000.9,2001.34,2003.09,2004.45,2002.32,2004.15,2002.75,2000.57,2001.5,2001.35,2001.43,2001.07,2000.84,2000.73,2000.63,2000.53,2000.47,2000.48,2000.42,2000.47,1999.79,1998.85,1999.77,1998.84,2002.09,2002.21,2000.11,2000.08,2000.98,2000.53,2000.55,2002.19,2001.22,2001.28,2000.5,1999.2,2001.18,2000.62,2001.44,1998.07,1993.05,1998.44,2001.14,2000.68,2001.69,2000.62,2000.58,1998.39,2000.59,2000.52,2000.58,1998.58,2000.68,2000.61,2000.65,2000.72,2000.82,2000.94,2001.2,2000.99,2001.85,2001.73,2003.98,2002.02,2003.87,2004.95,2005.08,2006.42,2008.46,2004.1,1998.35,2002.16,2009.22,2006.98,2005.44,2004.14,2003.22,2002.6,2002.15,2001.8,2001.54,2001.36,2001.23,2001.15,2001.1,2001.06,2001.05,2001.1,2001.1,2001.11,2001.18,2001.39,2002.27,2002.45,2004.86,2000.25,2002.63,2005.44,2002.21,2002.12,2002.77,2001.7,2000.27,2001.79,2001.51,2001.52,2001.63,2001.94,2001.71,2001.74,2001.96,2003.04,1996.78,2003.82,2002.33,2002.83,2003.51,2005.27,1995.63,1994.82,2002.37,2003.72,2003.62,2001.76,2005.2,1995.22,1993.87,1998.01,2009.59,2005,2003.8,2002.58,2003.49,2003.48,2004.86,2003.61,2003.76,2003.95,2006.24,2000.76,2009.26,2006.06,2005.69,2004.58,2002.92,2004.54,2004.6,2005.59,2004.9,2004.62,2003.79,2004.59,2004.78,2005.32,2004.65,2004.05,1996.04,1996.02,2002.91,2007.54,2005.46,2004.48,2006.18,1999.26,2007.49,2008.01,2004.65,2004.68,2004.45,2004.43,2004.53,2002.98,2004.39,2004.31,2004.02,2003.91,2003.88,2004.14,2005.2,2005.09,2003.91,2004.99,2003.51,2004.03,2003.25,2003.15,2003.85,2000.94,2003.67,2002.99,2003.69,2002.69,2002.59,2002.62,2002.34,2002.76,2002.1,2001.99,2001.95,2001.99,2001.9,2001.95,2002.61,2002.63,2002.8,1997.72,2000.34,2002.21,2002.5,2001.84,2001.38,2001.35,2001.56,1999.25,2000.69,2002.5,2001.33,2001.31,2000.19,1998.96,2001.22,2001.63,1998.63,2001.36,2001.96,2005.85,1996.54,1991.33,1993.11,2002.75,2003.97,2001.74,2001.11,2000.88,1994.86,2001.28,2000.91,2000.91,2001.2,2001.95,2000.66,2000.55,2000.52,2000.5,2000.49,2000.49,2000.54,2000.55,2000.47,2000.46,2000.48,2000.49,2000.53,2000.79,2001.95,2005.62,2001.61,2000.97,2000.56,2000.5,2000.49,2000.5,2000.66,2001.44,2000.68,2001,2003.43,2002.35,2001.84,2001.88,2001.69,2001.32
2002.8,2001.98,2001.67,2001.59,2001.14,2001.71,2002.27,2003.88,2003.17,2002.79,2002.33,2000.66,2000.28,2002.81,2001.27,2001.23,2002.8,2001.59,2001.4,2001.97,2001.5,1997.16,2002.69,2001.82,2001.55,2001.31,2001.07,2001.01,2001.08,2001,2001.04,2001.14,2001.16,2001.17,2001.11,2001.1,2001.2,2000.41,2001.21,2001.48,2001.14,2001.09,2001.1,2001.2,2003.55,2001.58,1999.16,2001.16,2001.24,2001.54,2004.07,1997.68,1994.2,1997.94,1999.72,2001.1,2002.1,2002.19,2002.78,2003.99,2007.3,2012.33,1997.92,1988.51,1982.97,1980.78,1981.79,1986.24,1994.04,2006.26,2012.15,2005.25,2002.86,2001.87,2001.37,2001.09,2000.91,2000.78,2000.7,2000.64,2000.64,2000.69,2000.71,1999.25,2000.89,2000.58,2000.49,2000.58,2000.61,2000.54,2000.47,2000.48,2000.55,2000.7,2000.61,2000.53,2001.06,1999.19,2000.73,2000.75,2000.73,2000.56,2000.54,2000.54,2000.57,2000.64,2000.77,2001.02,2001.44,2001.88,2002.03,2001.19,2002.45,2002.69,2001.16,2001.08,2000.47,2000.74,2000.65,2000.58,2000.52,2000.47,2000.49,1998.38,2000.41,2000.37,2000.4,2000.59,2001.29,2000.57,2000.6,2000.7,2001.29,2000.88,2000.6,2000.46,2000.45,2000.41,2000.52,2000.63,2000.44,2000.51,2000.52,2000.56,2001.43,2001.91,1996.39,2002.35,2001.12,2001.92,2000.71,2000.55,1998.96,2000.53,2000.5,2000.5,2000.53,2000.8,2000.61,2000.59,2000.63,2000.69,2000.78,2000.97,2001.71,2003.21,2002.33,2001.77,2002.5,2003.94,2002.59,2002.89,2003.42,2004.15,2005.2,2008.88,2002.47,2005.45,2005.62,2004.51,2002.94,2003.32,2002.57,2004.48,2004.29,2000.92,2001.56,2001.5,2001.2,2001.1,2001.05,2001.03,2001.1,2001.12,2001.17,2001.14,2001.19,2001.51,2003.89,2006.63,1997.58,1990.51,2007.51,2006.59,2002.57,2001.83,1999.71,2001.84,2001.46,2001.45,2001.46,2001.49,2001.66,1999.34,2001.82,2001.75,2001.89,2003.32,1999.71,2003.25,2002.17,2002.55,2005.83,1998.93,2000.96,2000,2008.5,2003.33,2003.52,2005.82,2003.7,1991.6,1992.24,1996.04,2007.26,2005,2003.69,2003.34,2003.24,2003.25,2003.35,2003.42,2003.46,2003.67,2004.95,1997.92,2000.04,2005.93,2001.74,2004.2,2004.51,2002.46,2004.81,2004.73,2004.34,2004.2,2004.22,2004.34,2004.77,2005.4,2007.04,2004.22,1996.51,1996.21,2003.16,2007.2,2005.13,2004.88,2005.49,2005.01,2004.07,2006.29,2005.03,2004.35,2004.22,2004.2,2004.41,2004.14,2003.95,2002.35,2003.91,2004.5,2003.7,2003.52,2003.53,2003.46,2003.3,2003.17,2003.08,2003.02,2002.94,2002.92,2003.12,2002.79,2003.19,2000.7,2003.14,2002.56,1996.17,1999.54,2003.09,2002.51,2001.99,2001.89,2001.87,2001.82,2002.05,2001.72,2001.7,2001.72,2002.23,1999.43,2002.23,2001.74,2001.7,2001.61,2001.36,2001.45,2001.62,2001.6,1995.36,2001.28,2001.43,2001.52,2002.05,2001.9,2001.18,2001.15,2001.27,2001.27,2001.82,2004.63,1998.93,1993.5,1995.09,2002,2003.23,2001.42,2000.97,2000.83,2001.09,1996.51,2002.91,2000.72,2000.7,2000.62,2000.58,2000.54,2000.52,2000.5,2000.49,2000.5,2001.81,1999.96,2000.53,2000.49,2000.94,2001.3,2000.52,2000.71,1997.66,2001.08,2000.77,2000.57,2000.49,2000.5,2000.46,2000.48,2000.68,2002.14,2000.8,2001.47,1998.13,2002.03,2004.97,2005.54,2004.8,2001.81
2002.01,2001.82,2001.68,2001.61,2001.71,2001.92,2003.58,1995.81,1998.12,2002.67,2001.62,2001.7,2001.88,2003.69,1994.56,1994.54,2003.61,2001.82,2001.67,2002.11,2002.29,2002.73,2001.96,2003.43,1996.48,1999.18,2000.12,2001.09,2001.05,2001.04,2001.06,2001.1,2001.13,2001.16,2001.24,2001.35,2001.34,2001.28,2001.24,2001.26,2001.46,2001.4,2001.51,2001.32,2001.33,2001.38,2001.33,2001.24,2001.21,2001.52,2003.22,2001.61,1997.88,2001.87,1998.29,2003.95,2002.61,2003.21,2004.02,2004.42,2007.21,2013.68,1999.09,1989.59,1984,1981.79,1982.81,1996.23,1995.48,2007.52,2009.38,2004.67,2002.71,2001.82,2001.35,2001.08,2000.94,2000.82,2000.71,2000.7,1998.72,2000.92,2000.68,2001.14,2000.81,2000.58,2000.5,2000.52,1998.54,2001.5,2000.5,2000.61,2000.99,1997.86,2001.9,2000.61,2000.88,2001.15,2002.93,2001.09,2000.51,2001.21,2000.87,2000.55,2000.54,2000.6,2000.8,1998.28,2000.19,2002,2001.56,1999.73,2003.74,2003.02,2001.03,2001.07,2000.69,2000.6,2000.55,2000.5,2000.47,2000.44,2000.62,2000.25,2000.42,2000.38,2000.36,2000.36,2000.38,2000.44,1998.49,2000.54,2000.47,2000.81,1999.94,1996.26,1998.19,2000.43,2001.16,1998.39,2000.44,2000.4,2000.42,2000.48,2000.74,2002.08,2000.16,2001.69,2001.25,1997.91,2000.86,2000.49,2000.49,2000.47,2000.47,2000.48,2000.5,2000.53,2000.59,2000.64,2000.61,2000.67,2000.77,2001.07,2003.14,1998.12,1998.77,2002.61,2001.73,2001.69,2001.96,2002.27,2002.48,2002.87,2003.38,2004.79,2001.52,2004.19,2003.59,2003.34,1998.83,2001.43,2002.14,2001.94,2003.16,1999.52,2001.7,2000.72,2001.18,2001.05,2001.02,2001.02,2001.14,1998.82,1998.57,1999.46,2001.22,2001.42,2002.57,2006.26,1997.9,1993.27,1995.9,2007.17,2003.07,2001.87,2001.53,2001.46,2001.06,2001.54,2001.5,2001.61,2002.05,1999.41,2002.33,2002.2,2001.86,2001.96,2002.17,2002.92,2002.02,2002.25,2003.38,2001.51,2000.79,2004.48,2003.12,2002.87,2003.21,2004.71,2008.27,1998.81,1996.49,1999.12,2008.85,2004.39,2002,2003.14,2003.05,2003.06,2003.1,2003.16,2003.24,2003.39,2003.89,2004,2001.45,2004.65,2004.62,2003.81,2003.84,2004.12,2002.64,2000.16,2004.69,2003.95,2004.05,2002.26,2005.85,2004.8,2005.55,2010.11,2004.02,2003.71,2010.57,2006.47,2005.02,2004.43,2004.67,2005.03,2004.12,2004.44,2004.5,2004.14,2004.12,2001.39,2003.97,2003.82,2003.72,2003.63,2003.57,2003.58,2003.36,2003.23,2003.16,2003.09,2003.01,2002.94,2002.9,2002.85,2002.77,2003.01,2001.82,2002.81,2002.69,2003.74,2004.1,2002.44,2003.42,1997.87,2003.4,2002.05,2001.9,2001.85,1999.63,2001.82,2002.29,2001.68,2001.59,2001.56,2001.89,2001.39,2000.9,2002.45,2001.59,2002.28,1999.55,1998.41,2001.5,2002.28,2002.21,2002.2,2001.38,2001.87,2002.22,2001.66,2001.42,2001.16,2001.09,2001.18,2001.52,2002.55,2006.56,2000.99,2005.22,2004.06,1997.27,2001.28,2000.89,2000.78,2000.77,2001.19,2000.93,2000.64,2000.61,2000.63,2000.8,2000.61,2000.52,2000.51,2000.52,2000.51,2000.73,1998.47,2000.7,2000.51,2001.01,2001.45,2000.49,2000.53,2000.84,2000.59,2000.51,2000.47,2000.47,1998.89,2000.53,2000.48,2000.54,2000.68,2000.92,2001.59,2003.73,2009.42,2000.81,1999.15,2003.85,2004.83
2002.07,2001.9,2001.78,2001.69,2001.69,2001.99,2003.4,1995.66,1997.95,2002.76,2001.69,2001.5,2001.79,2006.24,1996.63,1996.68,2006.28,2002.45,1998.98,2003.28,2001.65,2001.58,2001.44,2000.71,1999.59,2000.79,2001.34,2001.15,2001.28,2001.17,2001.14,2001.8,2001.33,2001.37,2001.78,2002.23,2001.24,2001.56,2001.44,2001.47,2000.53,2002.74,1998.65,2001.97,2001.52,2001.55,2001.79,1999.89,2001.4,2001.43,2001.95,2003.02,2004.25,2003.58,2003.18,2002.36,2003.54,1998.87,1999.57,2005.77,2006.95,2012.69,2004.07,1994.15,1988.34,1986.06,1987.1,1991.56,1999.83,2012.92,2007.58,2002.08,2002.57,2001.87,2001.39,2001.19,2001.94,1998.95,2000.78,1999.19,2000.86,2000.72,2001.04,1996.72,2001.75,1999.65,2000.71,2000.5,2000.93,2000.59,2000.54,2000.08,2002.86,2001.28,2001.38,2000.94,2000.58,2000.61,2001.63,2002.85,2002.46,2000.88,2002.99,2000.61,2000.52,2000.59,1999.12,2000.7,1997.49,1994.85,2002.63,2001.29,2000.9,2000.78,2000.97,2001.32,2000.57,2000.53,2000.52,2000.49,2000.96,2000.58,2000.63,2000.92,1999.23,1999.74,2000.52,2000.34,2000.44,1999.87,2000.75,2000.89,2000.45,2000.4,2000.41,2000.46,2001.05,2000.5,2000.43,2000.47,2000.39,2000.39,2000.4,2000.47,2000.65,2000.35,2002.15,1998.92,2002.02,2000.88,2000.55,2000.46,2000.45,2000.45,2000.46,2000.47,2000.49,2000.51,2000.65,2000.74,2000.6,2000.64,2000.75,2001.1,2004.25,1994.74,1995.46,2003.62,2001.88,2001.42,2002.98,2001.36,2001.95,2002.11,2002.73,2002.72,2002.79,2002.88,1999.64,2002.46,2003.43,2002.78,2001.77,2001.64,2002.34,1998.86,2001.58,2001.4,2001.1,2001.06,2001.09,2001.02,2000.21,2001.12,2001.29,2001.19,2001.92,2001.54,2002.09,2003.75,2006.98,2001.44,2004.58,2004.54,2002.55,2001.93,2001.51,2001.6,2001.9,2001.77,2002.68,2003.49,1999.45,2003.03,1998.85,1999.21,2002.31,2002.51,2001.9,2001.11,2002,2002.44,2002.53,2003.18,2003.44,2002.73,2002.48,2002.59,2001.53,2003.81,2005.59,2009.86,2008.42,2008.28,2004.82,2003.55,2003.1,2002.93,2002.88,2002.89,2002.92,2002.98,2003.05,2003.15,2002.24,2003.69,2003.63,2003.64,2003.51,2002.81,2004.37,2004.95,2006.01,2001.27,2004.26,2003.69,2003.76,2004.1,2004.79,2005.28,2004.55,2005.27,2003.28,2006.39,2005.43,2002.62,2004.8,2004.25,2004.38,2003.8,2003.58,2001.99,2004.32,2004.12,2004.09,2004.06,2003.9,2003.75,2003.63,2003.48,2003.34,2003.22,2003.12,2003.03,2002.96,2002.89,2002.83,2002.8,2003.13,2003.93,2002.78,2002.91,2001.24,2002.58,2002.43,2002.79,2000.42,2002.3,2000.94,2001.27,2002.25,2003.46,2002.12,2001.93,2002.04,2002.11,2001.9,1999.36,2001.63,2001.47,2001.52,2001.67,2001.39,2002.24,2001.35,2002.71,2001.53,2001.55,2001.25,2001.3,2001.38,2001.35,2000.09,2001.98,1999.39,1999.79,2002.73,2001.47,2001.11,2001.24,1999.24,2001.56,2002.45,2001.34,2002.54,2001.78,2001.35,1999.16,2000.84,2000.73,2000.69,2000.71,2001.31,2000.63,2000.65,2000.97,2000.05,2000.85,2000.55,2000.58,1999.51,2000.54,2001.22,1997.08,2000.64,2000.55,2000.49,2000.48,2000.47,2000.49,2000.72,2000.72,2000.52,2000.5,2000.5,2000.53,2000.31,2000.49,2000.59,2001.76,2001.28,2002.95,2005.42,2000.14,1992.64,1991.19,1995.4,2006.29
2002.26,2002.06,2001.92,2001.82,2001.83,2002.01,2002.52,2006.01,2003.34,2004.03,2003.3,2001.55,2001.6,2002.16,2003.61,2004.6,2002.51,2002.13,2003.5,2001.15,2001.42,2000.64,2001.36,1999.41,2001.44,2001.59,2001.51,2001.24,1999.57,2001.54,2001.41,2001.34,2001.47,1999.72,2002.69,2000.28,2001.48,2002.02,2001.74,2001.73,2001.78,2002.29,2004.24,2002.24,2002.01,2001.74,2002.2,2003.47,2001.66,2000.46,2001.44,2001.31,2002.75,2001.8,2000.67,2002.23,2006.55,1996.6,1995.95,2004.68,2006.96,2003.04,2013.46,2002.65,1996.4,1993.95,1995.06,1999.83,2008.79,2010.67,2005.8,2003.8,2002.39,2002.15,1998.54,2001.83,2004.19,2002.44,2000.8,2000.66,2000.61,2000.62,2000.8,2003.03,2001.17,2000.32,2000.67,2000.47,2000.53,2000.48,2000.69,1999.48,1998.55,1997.19,1999.85,2000.84,2001.01,2000.53,2000.74,2002.56,1996.38,1998.23,2001.52,2000.88,2000.73,2000.56,2000.85,2002.28,1992.9,1990.52,1997.43,2001.67,2001.15,2000.68,1999.11,2000.69,2000.51,2000.79,1999.5,2000.59,2001.52,2000.65,2000.41,2000.38,2000.43,2001.69,2000.44,2000.33,2000.35,2000.69,2000.37,1996.99,2000.62,2000.36,2000.38,2000.63,1997.28,2000.74,2000.37,2000.36,2000.38,2000.51,2000.53,2002.19,2002.04,1998.66,2000.6,2002.83,1998.61,2000.84,2000.49,2000.44,2000.44,2000.45,2000.45,2000.46,2000.49,2000.52,2001.38,2001.25,2000.57,2000.6,2000.7,1999.8,2002,2001.31,2002.16,2001.9,2001.24,2001.2,2001.32,2001.48,1999.51,2001.69,2001.94,2002.01,2003.42,2003.05,2002.03,2003.29,2002.03,2001.87,2000.76,2001.38,2001.42,2001.53,2001.65,2002.13,2001.08,1999.15,1998.61,2001.23,2001.02,2001.08,2001.1,2001.07,2002.22,2001.37,2001.42,2001.89,2002.61,2003.88,2003.1,2002.08,2001.63,2001.48,2002.99,2003.64,2000.83,2002.07,2003.33,2003.68,2002.57,1998.27,2000.93,2001.32,2002.23,1999.34,2002.11,2002.37,2002.43,1999.78,2002.24,2002.1,2002.14,2002.17,2002.2,2002.32,2002.89,2004.56,2003.49,2003.95,2004.23,2003.9,2003.35,2002.98,2002.81,2002.74,2002.73,2002.74,2002.79,2003,2003.05,2002.96,2003.14,2002.9,2004.26,2003.68,2003.4,2003.39,2005.51,2006.13,2003.98,2003.7,2003.51,2003.44,2003.5,2003.94,2003.73,2002.81,2004.56,2004.07,2004.28,2004.25,2004.11,2004.08,2004.79,2003.89,2003.87,2004,2004.28,2004.26,2004.32,2004.4,2004.39,2004.28,2004.13,2003.98,2004.99,2003.59,2003.22,2003.09,2002.98,2002.89,2002.81,2002.75,2002.69,2002.68,2004.1,1999.25,2000.77,2002.57,2002.59,2003.14,2002.26,2002.19,2002.15,2002.05,2002.04,2002.35,2001.92,2002.07,2002.28,1999.01,2001.66,2003.8,2001.24,2002.28,2001.53,2001.42,2001.93,2001.55,2001.52,2001.88,2001.34,2001.32,2001.28,2001.11,2001.24,2002.15,2001.22,2002.33,2002.59,2002.94,2004.35,1995.4,1997.99,2002.62,2000.83,2001.11,2001.11,2001.14,2001.28,2001.39,2001.37,2001.19,2000.98,2000.86,2000.75,2000.69,2000.72,1999.86,2000.64,2000.74,2000.87,1999.93,1994.91,2001.17,2000.57,2000.52,2000.51,2000.53,2000.94,2000.44,2001.16,2000.55,2000.49,2000.49,2000.49,2000.54,1999.57,1998.3,2000.77,2001.5,2000.92,2000.52,2000.46,2000.48,2000.6,2000.74,2001.49,2003.74,2006.6,1997.83,1990.57,1989.24,1993.99,2003.76
2002.5,2002.27,2002.11,2002.01,2002.3,2001.53,2002.12,2001.98,2001.98,2002.62,2002.67,2001.55,2001.52,2001.62,2001.92,2001.05,1997.1,2003.65,2001.77,2003.17,2001.33,2001.29,2000.54,2001.34,2001.26,2001.26,2002.51,2001.44,2001.82,2001.92,2002.52,2001.47,2001.55,2001.68,2002.24,2001.04,2002.25,2002.42,2002.22,2002.22,2002.22,2002.28,2002.42,2002.72,2003.53,2003.78,2004.14,2003.57,2002.12,2002.32,2001.41,2001.33,2001.32,2001.29,2001.37,2001.68,2003.74,1997.7,2001.23,2006.13,2004.52,2008.42,2010.33,2015.66,2009.07,2006.31,2007.55,2012.95,2010.51,2006.24,2004.4,2002.78,2002.12,2001.52,2001.38,2001.93,1997.83,2004.04,2000.78,2000.66,2000.69,2001.05,2002.22,2000.69,2000.56,2000.53,2000.48,2000.45,2000.44,2000.45,2000.52,2000.8,2002,2005.91,2001.7,2001.12,2000.62,2000.93,2000.83,2005.3,1997.49,1999.4,2001.35,2001.35,2000.93,2000.51,2000.67,2001.45,1998.08,1995.39,2001.41,2003.81,1998.95,2000.66,2000.61,2000.5,2000.48,1999.73,2001.07,2001.54,2001.57,2000.39,2000.35,2000.36,2000.38,2000.35,2000.33,2000.33,2000.35,2000.44,2000.88,2001.4,2000.46,2000.35,2000.77,2000.54,2000.63,2000.41,2000.65,2000.43,2000.37,2000.69,2000.58,2000.86,2001.25,2000.81,2001.07,2002.38,2001.29,2000.57,2000.45,2000.63,2000.56,2000.75,2000.45,2000.46,2000.61,2000.73,2000.6,2000.55,2000.54,2000.57,2000.65,2000.83,2001.19,2002.59,2001.73,2001.23,2001.04,2001.03,2001.09,2001.19,2001.35,2001.37,2001.83,2001.61,2001.74,2002.08,2001.49,2001.98,2002.01,2002.56,2002.25,2001.33,2001.4,2001.57,2001.37,2001.5,2000.98,2001.25,2001.3,2000.99,2001.61,2002.88,1999.91,2001.11,2001.11,2001.14,2001.27,1999.97,2001.85,2002.19,1999.53,2001.6,2001.47,2001.51,2002.1,1998.02,1996.66,2003.25,2003.34,1996.55,1999.77,2004.95,2002,2002.22,2001.82,2002.07,2005.05,1999.63,2004.09,2003.59,2002.69,2003.22,2002.34,2003.04,2002.04,2002.14,2002.35,2000.73,2002.63,2002.79,2002.9,2003.87,2002.8,2002.65,2002.61,2002.67,2002.68,2002.63,2002.69,2001.96,2002.19,2002.83,2002.87,2003.35,2000.26,2000.5,2001.49,2003.38,2003.24,2002.44,2003.8,2003.31,2003.43,2003.23,2003.24,2003.3,2002.35,2002.35,2003.87,2003.57,2003.68,2003.67,2003.6,2003.61,2003.8,2003.75,2005.22,2004.1,2002.81,2004.81,2004.99,2005.37,2005.48,2005.2,2005.01,2004.13,2004.48,2003.42,2003.19,2003.22,2002.93,2002.77,2002.87,2002.8,2001.36,2002.53,2003.17,2003.45,2002.6,2003.04,2003.69,2003.17,2002.27,2001.66,2002.16,2001.99,2001.86,2001.81,2001.76,2001.79,2002.25,2002.58,2004.18,2001.56,2002.44,1998.34,2001.47,2001.36,2001.43,2001.42,2002.27,1997.88,2001.5,2001.18,2001.14,2001.12,2001.12,2001.18,2001.87,2001.33,2001.28,2002.1,2002.8,2002.28,2005.48,2001.64,2002.7,2001.02,2000.95,2000.98,2001.05,2001.07,2001.04,2001.04,2001.06,2000.76,2000.7,2000.67,2000.66,2000.67,2000.68,1999.03,1996.68,2001.56,2001.78,2000.94,2000.57,2000.51,2000.5,2000.53,1998.14,1999.63,2002.17,2000.58,2000.57,2000.59,2000.57,2000.57,2001.09,1997.22,1999.59,2001.81,2000.79,2000.53,2000.46,2000.47,2000.55,2000.72,2001.13,2002.57,2004.78,2001.74,1994.06,1992.56,1996.8,2008.06
2002.8,2002.53,1999,2002.7,2000.76,2002.49,2002.78,2002.01,2000.8,2002.02,2001.75,2001.58,2001.52,2001.52,2001.6,2002.07,2002.63,2001.85,2001.67,2001.42,2001.33,2001.32,2001.32,2001.3,2001.28,2001.29,2001.32,2001.73,2001.46,2001.62,2001.6,2001.9,2001.91,2001.91,2002.48,2001.24,2003.06,2001.03,2003.11,2003.1,2003.05,2003.05,2003.37,2004.62,2008.04,2008.57,2008.99,2005.2,2002.99,2000.15,2001.62,2001.29,2001.2,2001.19,2001.25,2001.47,2000.04,2004.39,2004.05,2003,2003.03,2005.14,2003.46,2008.45,2009.12,2009.86,2009.38,2007.46,2005.59,2004.33,2003.44,2002.64,2004.39,2001.38,2001.16,2002.12,2001.26,2000.9,2000.75,2000.9,2001.92,2002.58,1998.59,2000.67,2000.5,2000.46,2000.45,2000.44,2000.43,2000.44,2000.45,2000.51,2000.63,2000.82,1999.83,2000.55,1999.54,2001.21,2000.85,1997.91,1999.78,2001.39,2000.68,2000.51,2000.45,2000.45,2000.53,2000.78,2001.49,2002.55,1995.01,1999.01,2000.14,2000.59,1999.51,2000.44,2000.43,2000.65,2000.82,1998.76,2000.5,2000.37,2000.35,2000.61,1999.34,2000.34,2000.33,2000.34,2000.49,1998.83,2000.03,2000.45,2000.36,2000.36,2000.51,2000.52,2000.41,2000.36,2000.42,2000.37,2000.37,2002.83,1998,2000.5,2000.4,2000.43,2000.55,2000.73,2000.5,2000.43,2000.42,2000.91,1998.55,2000.48,2000.46,2000.47,2002.08,1997.74,2000.64,2000.5,2000.51,2000.54,2000.6,2000.99,2002.22,1994.82,2002.46,2001.83,2000.99,2000.92,2000.97,2001.08,2001.52,2002.48,2001.84,2001.27,2001.25,2001.26,2001.26,2001.59,2001.98,2002.78,2003.27,2000.05,2001.49,2001.03,2001.67,2001.93,2000.96,2001.01,2000.98,2001.08,2001.2,2001.82,2002.34,2001.08,1999.04,2001.4,2000.92,2001.36,2001.55,2001.51,2002.02,2001.36,2001.69,2002.12,2001.85,2001.01,1999.68,1999.77,2004.51,1994.94,1997.88,2002.1,2002.3,1998.23,2002.04,2003.46,1999.83,1995.63,2001.61,2002.72,1999.11,1998.4,2002.95,2001.99,2001.96,2002.04,2002.14,2002.24,2002.31,2002.37,2002.44,2002.7,2002.56,2002.53,2002.84,2003.4,2003.48,2001.9,2002.57,2002.69,2002.73,2001.51,2002.86,2001.79,2003.1,2003.18,2004.57,2003.03,2003.85,2003.53,2003.07,1999.11,2000.85,2003.07,2003.04,2003.07,2003.14,2003.3,2003.32,2003.25,2003.47,2003.4,2003.3,2003.42,2004.57,2003.9,2004.13,2004.08,2005.25,2005.79,2007.47,2008.81,2009.53,2008.3,2006.45,2005.13,2005.05,2003.58,2003.45,2003.51,2002.96,2002.66,2002.7,2002.73,2002.4,2002.44,2002.78,2002.5,2002.8,2001.47,1997.01,2004.4,2002.37,2002.52,2002.26,2002.98,2001.78,2001.72,2001.68,2001.67,2001.77,2002.14,2002.08,2001.88,2000.13,2001.64,2001.38,2001.32,2001.29,2001.35,2001.96,2001.57,2001.36,2001.25,2001.11,2001.07,2001.07,2001.11,2001.45,2001.87,2003.09,2005.21,2006.36,2002.86,2002.51,2001.84,2001.04,2000.93,2000.9,2001,2001.4,2001.59,2000.75,2001.11,2000.85,2000.71,2000.67,2000.65,2000.78,2001.38,2000.8,2001.06,1999.24,2002.4,2002.39,2000.84,2000.58,2000.57,2000.65,2000.55,2001.34,2001.17,2000.98,2000.64,2001.01,2001.77,2000.92,2000.82,2000.69,2000.73,2000.6,2000.58,1999.37,2000.67,2000.5,2000.5,2000.54,2001.89,2001.43,1999.92,2002.8,2004.09,2004.1,2002.34,2007.3,2004.33
