2000,2000,2000,2000,2000,2000,2000,2000,2000,2000,2000,2000,2000,2000,2000,2000,2000,2000,2000,2000,2000,2000,2000,2000,2000,2000,2000,2000.01,2000.01,2000.01,2000.01,2000.01,2000.01,2000.01,2000.01,2000.01,2000.01,2000.01,2000.01,2000.01,2000.01,2000.01,2000.01,2000.01,2000,2000,2000,2000,2000,2000,2000,2000,2000,2000,2000,2000,2000,2000,2000,2000,2000,2000,2000,2000,2000,2000,2000,2000,2000,2000,2000,2000,2000,2000,2000,2000,2000,2000,2000,2000,2000,2000,2000,2000,2000,2000,2000,2000,2000,2000,2000,2000,2000,2000,2000,2000,2000,2000,2000,2000,2000,2000,2000,2000,2000,2000,2000,2000,2000,2000,2000,2000,2000,2000,2000,2000,2000,2000,2000,2000,2000,2000,2000,2000,2000,2000,2000,2000,2000,2000,2000,2000.01,2000.01,2000.01,2000.01,2000.01,2000.01,2000.01,2000.01,2000.01,2000.01,2000.01,2000.01,2000.01,2000.01,2000.01,2000.01,2000.01,2000.01,2000.01,2000.01,2000.01,2000.01,2000.01,2000.01,2000.01,2000.01,2000.01,2000.01,2000.01,2000.01,2000.01,2000.01,2000.01,2000.01,2000.01,2000.01,2000.01,2000.01,2000.01,2000.01,2000.01,2000.01,2000.01,2000.01,2000.01,2000.01,2000.01,2000.01,2000.01,2000.01,2000.01,2000.01,2000.01,2000.01,2000.01,2000.01,2000.01,2000.01,2000.01,2000.01,2000.01,2000,2000,2000,2000,2000,2000,2000,2000,2000,2000,2000,2000,2000,2000,2000,2000,2000,2000,2000,2000,2000,2000,2000,2000,2000,2000,2000,2000,2000,2000,2000,2000,2000,2000,2000,2000,2000,2000,2000,2000,2000,2000,2000,2000,2000.01,2000.01,2000.01,2000.01,2000.01,2000.01,2000.01,2000.01,2000.01,2000.01,2000.01,2000.01,2000.01,2000.01,2000.01,2000.01,2000.01,2000.01,2000.01,2000.02,2000.02,2000.02,2000.02,2000.02,2000.02,2000.02,2000.03,2000.03,2000.03,2000.03,2000.04,2000.04,2000.04,2000.05,2000.05,2000.06,2000.07,2000.08,2000.09,2000.1,2000.11,2000.14,2000.16,2000.2,2000.25,2000.33,2000.44,2000.64,2000.99,2001.73,2001.14,2000.34,1999.89,1999.77,1999.95,2000.47,2001.35,2002.64,2002.48,2002.83,2003.68,2002.79,2001.53,2000.49,1999.65,1998.97,1998.46,1998.1,1997.89,1997.81,1997.87,1998.08,1998.42,1998.91,1999.56,2000.37,2001.36,2002.56,2003.5,2002.48,2001.83,2001.39,2001.08,2000.85,2000.69,2000.56,2000.46,2000.39,2000.33,2000.28,2000.24,2000.21,2000.19,2000.17,2000.15,2000.14,2000.13,2000.13,2000.12,2000.12,2000.12,2000.12,2000.13,2000.14,2000.15,2000.16,2000.18,2000.21,2000.24,2000.29,2000.35,2000.44,2000.57,2000.74,2001.01,2001.44,2002.16,2002.49,2001.08,1999.94,1999.03,1998.33,1997.82,1997.49,1997.33,1997.33,1997.5,1997.84,1998.35,1999.06,1999.97,2001.11,2002.54,2002.16,2001.45,2001.03,2000.76,2000.59,2000.47,2000.38,2000.32,2000.28,2000.25,2000.23,2000.23,2000.23,2000.23,2000.25,2000.27,2000.31,2000.35,2000.41,2000.49,2000.6,2000.75,2000.96,2001.25,2001.65,2002.19,2002.36,2001.81,2001.51,2001.45,2001.61,2002.02,2002.53,2001.89,2001.4,2001.04,2000.78,2000.59,2000.45,2000.35,2000.28,2000.22,2000.18,2000.15,2000.12,2000.1,2000.08,2000.07,2000.06,2000.05,2000.05,2000.04,2000.03,2000.03,2000.03,2000.02,2000.02,2000.02
2000,2000,2000,2000,2000,2000,2000,2000,2000,2000,2000,2000,2000,2000,2000,2000,2000,2000,2000,2000,2000,2000,2000,2000,2000,2000.01,2000.01,2000.01,2000.01,2000.01,2000.01,2000.01,2000.01,2000.01,2000.01,2000.01,2000.01,2000.01,2000.01,2000.01,2000.01,2000.01,2000.01,2000.01,2000.01,2000.01,2000,2000,2000,2000,2000,2000,2000,2000,2000,2000,2000,2000,2000,2000,2000,2000,2000,2000,2000,2000,2000,2000,2000,2000,2000,2000,2000,2000,2000,2000,2000,2000,2000,2000,2000,2000,2000,2000,2000,2000,2000,2000,2000,2000,2000,2000,2000,2000,2000,2000,2000,2000,2000,2000,2000,2000,2000,2000,2000,2000,2000,2000,2000,2000,2000,2000,2000,2000,2000,2000,2000,2000,2000,2000,2000,2000,2000,2000,2000,2000,2000,2000,2000,2000,2000,2000,2000,2000,2000.01,2000.01,2000.01,2000.01,2000.01,2000.01,2000.01,2000.01,2000.01,2000.01,2000.01,2000.01,2000.01,2000.01,2000.01,2000.01,2000.02,2000.02,2000.02,2000.02,2000.02,2000.02,2000.02,2000.02,2000.02,2000.02,2000.02,2000.01,2000.01,2000.01,2000.01,2000.01,2000.01,2000.01,2000.01,2000.01,2000.01,2000.01,2000.01,2000.01,2000.01,2000.01,2000.01,2000.01,2000.01,2000.01,2000.01,2000.01,2000.01,2000.01,2000.01,2000.01,2000.01,2000.01,2000.01,2000.01,2000.01,2000.01,2000.01,2000,2000,2000,2000,2000,2000,2000,2000,2000,2000,2000,2000,2000,2000,2000,2000,2000,2000,2000,2000,2000,2000,2000,2000,2000,2000,2000,2000,2000,2000,2000,2000,2000,2000,2000,2000,2000,2000,2000,2000,2000,2000,2000.01,2000.01,2000.01,2000.01,2000.01,2000.01,2000.01,2000.01,2000.01,2000.01,2000.01,2000.01,2000.01,2000.01,2000.01,2000.01,2000.01,2000.01,2000.01,2000.01,2000.02,2000.02,2000.02,2000.02,2000.02,2000.02,2000.02,2000.03,2000.03,2000.03,2000.03,2000.04,2000.04,2000.04,2000.05,2000.05,2000.06,2000.07,2000.08,2000.09,2000.1,2000.11,2000.13,2000.16,2000.19,2000.24,2000.3,2000.39,2000.53,2000.74,2001.09,2001.66,2001.69,2001.19,2001.05,2001.26,2001.83,2002.4,2002.31,2002.6,2003.31,2003.21,2001.76,2000.56,1999.56,1998.75,1998.1,1997.6,1997.26,1997.05,1996.97,1997.03,1997.23,1997.56,1998.04,1998.66,1999.45,2000.41,2001.56,2002.94,2003.07,2002.17,2001.6,2001.22,2000.95,2000.75,2000.61,2000.5,2000.41,2000.35,2000.3,2000.25,2000.22,2000.2,2000.18,2000.16,2000.15,2000.14,2000.13,2000.12,2000.12,2000.12,2000.12,2000.13,2000.13,2000.14,2000.16,2000.18,2000.2,2000.23,2000.27,2000.33,2000.41,2000.52,2000.66,2000.88,2001.21,2001.72,2002.6,2002,2000.81,1999.87,1999.15,1998.62,1998.27,1998.1,1998.11,1998.28,1998.63,1999.16,1999.89,2000.84,2002.04,2002.6,2001.73,2001.22,2000.89,2000.68,2000.53,2000.43,2000.36,2000.31,2000.27,2000.24,2000.23,2000.22,2000.22,2000.23,2000.25,2000.27,2000.31,2000.35,2000.4,2000.46,2000.54,2000.64,2000.76,2000.92,2001.13,2001.38,2001.65,2001.89,2002.07,2002.1,2001.99,2001.76,2001.48,2001.21,2000.96,2000.76,2000.6,2000.47,2000.37,2000.3,2000.24,2000.19,2000.16,2000.13,2000.11,2000.09,2000.08,2000.07,2000.06,2000.05,2000.04,2000.04,2000.03,2000.03,2000.03,2000.02,2000.02,2000.02
2000,2000,2000,2000,2000,2000,2000,2000,2000,2000,2000,2000,2000,2000,2000,2000,2000,2000,2000,2000,2000,2000,2000,2000.01,2000.01,2000.01,2000.01,2000.01,2000.01,2000.01,2000.01,2000.01,2000.01,2000.01,2000.01,2000.01,2000.01,2000.01,2000.01,2000.01,2000.01,2000.01,2000.01,2000.01,2000.01,2000.01,2000.01,2000.01,2000,2000,2000,2000,2000,2000,2000,2000,2000,2000,2000,2000,2000,2000,2000,2000,2000,2000,2000,2000,2000,2000,2000,2000,2000,2000,2000,2000,2000,2000,2000,2000,2000,2000,2000,2000,2000,2000,2000,2000,2000,2000,2000,2000,2000,2000,2000,2000,2000,2000,2000,2000,2000,2000,2000,2000,2000,2000,2000,2000,2000,2000,2000,2000,2000,2000,2000,2000,2000,2000,2000,2000,2000,2000,2000,2000,2000,2000,2000,2000,2000,2000,2000,2000,2000,2000,2000.01,2000.01,2000.01,2000.01,2000.01,2000.01,2000.01,2000.01,2000.01,2000.01,2000.01,2000.01,2000.01,2000.01,2000.02,2000.02,2000.02,2000.02,2000.02,2000.02,2000.02,2000.02,2000.02,2000.02,2000.02,2000.02,2000.02,2000.02,2000.02,2000.01,2000.01,2000.01,2000.01,2000.01,2000.01,2000.01,2000.01,2000.01,2000.01,2000.01,2000.01,2000.01,2000.01,2000.01,2000.01,2000.01,2000.01,2000.01,2000.01,2000.01,2000.01,2000.01,2000.01,2000.01,2000.01,2000.01,2000.01,2000.01,2000.01,2000,2000,2000,2000,2000,2000,2000,2000,2000,2000,2000,2000,2000,2000,2000,2000,2000,2000,2000,2000,2000,2000,2000,2000,2000,2000,2000,2000,2000,2000,2000,2000,2000,2000,2000,2000,2000,2000,2000,2000,2000,2000,2000.01,2000.01,2000.01,2000.01,2000.01,2000.01,2000.01,2000.01,2000.01,2000.01,2000.01,2000.01,2000.01,2000.01,2000.01,2000.01,2000.01,2000.01,2000.01,2000.01,2000.02,2000.02,2000.02,2000.02,2000.02,2000.02,2000.02,2000.03,2000.03,2000.03,2000.03,2000.04,2000.04,2000.04,2000.05,2000.05,2000.06,2000.07,2000.08,2000.09,2000.1,2000.11,2000.13,2000.15,2000.18,2000.22,2000.28,2000.35,2000.45,2000.58,2000.77,2001.02,2001.33,2001.62,2001.81,2001.87,2001.88,2001.97,2002.24,2002.81,2003.93,2002.31,2000.93,1999.77,1998.8,1998.01,1997.38,1996.9,1996.56,1996.36,1996.28,1996.34,1996.54,1996.86,1997.33,1997.94,1998.7,1999.64,2000.76,2002.09,2003.66,2002.55,2001.83,2001.36,2001.04,2000.81,2000.65,2000.53,2000.43,2000.36,2000.31,2000.26,2000.23,2000.2,2000.18,2000.16,2000.15,2000.14,2000.13,2000.12,2000.12,2000.12,2000.12,2000.13,2000.13,2000.14,2000.15,2000.17,2000.19,2000.22,2000.26,2000.31,2000.37,2000.46,2000.59,2000.76,2001,2001.36,2001.92,2002.83,2001.93,2000.94,2000.18,1999.62,1999.26,1999.09,1999.09,1999.27,1999.64,2000.19,2000.96,2001.96,2002.82,2001.92,2001.37,2001.01,2000.77,2000.6,2000.48,2000.39,2000.33,2000.29,2000.25,2000.23,2000.22,2000.22,2000.22,2000.23,2000.25,2000.28,2000.32,2000.37,2000.42,2000.47,2000.52,2000.58,2000.64,2000.73,2000.83,2000.95,2001.07,2001.17,2001.24,2001.25,2001.2,2001.1,2000.96,2000.82,2000.69,2000.56,2000.46,2000.37,2000.31,2000.25,2000.21,2000.17,2000.14,2000.12,2000.1,2000.08,2000.07,2000.06,2000.05,2000.05,2000.04,2000.04,2000.03,2000.03,2000.03,2000.02,2000.02,2000.02
2000,2000,2000,2000,2000,2000,2000,2000,2000,2000,2000,2000,2000,2000,2000,2000,2000,2000,2000,2000,2000,2000,2000.01,2000.01,2000.01,2000.01,2000.01,2000.01,2000.01,2000.01,2000.01,2000.01,2000.01,2000.01,2000.01,2000.01,2000.01,2000.01,2000.01,2000.01,2000.01,2000.01,2000.01,2000.01,2000.01,2000.01,2000.01,2000.01,2000.01,2000,2000,2000,2000,2000,2000,2000,2000,2000,2000,2000,2000,2000,2000,2000,2000,2000,2000,2000,2000,2000,2000,2000,2000,2000,2000,2000,2000,2000,2000,2000,2000,2000,2000,2000,2000,2000,2000,2000,2000,2000,2000,2000,2000,2000,2000,2000,2000,2000,2000,2000,2000,2000,2000,2000,2000,2000,2000,2000,2000,2000,2000,2000,2000,2000,2000,2000,2000,2000,2000,2000,2000,2000,2000,2000,2000,2000,2000,2000,2000,2000,2000,2000,2000,2000.01,2000.01,2000.01,2000.01,2000.01,2000.01,2000.01,2000.01,2000.01,2000.01,2000.01,2000.01,2000.01,2000.02,2000.02,2000.02,2000.02,2000.02,2000.02,2000.02,2000.02,2000.02,2000.02,2000.02,2000.02,2000.02,2000.02,2000.02,2000.02,2000.02,2000.02,2000.01,2000.01,2000.01,2000.01,2000.01,2000.01,2000.01,2000.01,2000.01,2000.01,2000.01,2000.01,2000.01,2000.01,2000.01,2000.01,2000.01,2000.01,2000.01,2000.01,2000.01,2000.01,2000.01,2000.01,2000.01,2000.01,2000.01,2000.01,2000.01,2000.01,2000,2000,2000,2000,2000,2000,2000,2000,2000,2000,2000,2000,2000,2000,2000,2000,2000,2000,2000,2000,2000,2000,2000,2000,2000,2000,2000,2000,2000,2000,2000,2000,2000,2000,2000,2000,2000,2000,2000,2000,2000,2000.01,2000.01,2000.01,2000.01,2000.01,2000.01,2000.01,2000.01,2000.01,2000.01,2000.01,2000.01,2000.01,2000.01,2000.01,2000.01,2000.01,2000.01,2000.01,2000.01,2000.02,2000.02,2000.02,2000.02,2000.02,2000.02,2000.02,2000.03,2000.03,2000.03,2000.03,2000.04,2000.04,2000.04,2000.05,2000.05,2000.06,2000.07,2000.08,2000.09,2000.1,2000.11,2000.13,2000.15,2000.18,2000.21,2000.26,2000.31,2000.39,2000.48,2000.6,2000.75,2000.91,2001.08,2001.23,2001.38,2001.56,2001.83,2002.29,2003.1,2003.19,2001.61,2000.27,1999.14,1998.2,1997.43,1996.82,1996.35,1996.01,1995.81,1995.74,1995.8,1995.99,1996.31,1996.76,1997.36,1998.11,1999.03,2000.12,2001.42,2002.95,2002.95,2002.05,2001.49,2001.12,2000.87,2000.69,2000.55,2000.45,2000.38,2000.32,2000.27,2000.24,2000.21,2000.18,2000.16,2000.15,2000.14,2000.13,2000.12,2000.12,2000.12,2000.12,2000.12,2000.13,2000.14,2000.15,2000.16,2000.18,2000.21,2000.24,2000.28,2000.34,2000.41,2000.51,2000.64,2000.83,2001.08,2001.44,2001.95,2002.71,2002.27,2001.46,2000.87,2000.49,2000.3,2000.3,2000.5,2000.88,2001.48,2002.29,2002.71,2001.95,2001.44,2001.09,2000.84,2000.65,2000.52,2000.43,2000.36,2000.3,2000.27,2000.24,2000.22,2000.21,2000.21,2000.22,2000.24,2000.27,2000.31,2000.37,2000.44,2000.51,2000.56,2000.59,2000.6,2000.61,2000.63,2000.66,2000.7,2000.76,2000.8,2000.82,2000.82,2000.79,2000.74,2000.67,2000.59,2000.5,2000.43,2000.36,2000.3,2000.25,2000.21,2000.18,2000.15,2000.13,2000.11,2000.09,2000.08,2000.07,2000.06,2000.05,2000.04,2000.04,2000.03,2000.03,2000.03,2000.02,2000.02,2000.02,2000.02
2000,2000,2000,2000,2000,2000,2000,2000,2000,2000,2000,2000,2000,2000,2000,2000,2000,2000,2000,2000,2000,2000.01,2000.01,2000.01,2000.01,2000.01,2000.01,2000.01,2000.01,2000.01,2000.01,2000.01,2000.01,2000.01,2000.01,2000.01,2000.01,2000.01,2000.01,2000.01,2000.01,2000.01,2000.01,2000.01,2000.01,2000.01,2000.01,2000.01,2000.01,2000.01,2000,2000,2000,2000,2000,2000,2000,2000,2000,2000,2000,2000,2000,2000,2000,2000,2000,2000,2000,2000,2000,2000,2000,2000,2000,2000,2000,2000,2000,2000,2000,2000,2000,2000,2000,2000,2000,2000,2000,2000,2000,2000,2000,2000,2000,2000,2000,2000,2000,2000,2000,2000,2000,2000,2000,2000,2000,2000,2000,2000,2000,2000,2000,2000,2000,2000,2000,2000,2000,2000,2000,2000,2000,2000,2000,2000,2000,2000,2000,2000,2000,2000,2000,2000.01,2000.01,2000.01,2000.01,2000.01,2000.01,2000.01,2000.01,2000.01,2000.01,2000.01,2000.01,2000.02,2000.02,2000.02,2000.02,2000.02,2000.03,2000.03,2000.03,2000.03,2000.03,2000.03,2000.03,2000.03,2000.03,2000.02,2000.02,2000.02,2000.02,2000.02,2000.02,2000.02,2000.01,2000.01,2000.01,2000.01,2000.01,2000.01,2000.01,2000.01,2000.01,2000.01,2000.01,2000.01,2000.01,2000.01,2000.01,2000.01,2000.01,2000.01,2000.01,2000.01,2000.01,2000.01,2000.01,2000.01,2000.01,2000.01,2000.01,2000.01,2000.01,2000,2000,2000,2000,2000,2000,2000,2000,2000,2000,2000,2000,2000,2000,2000,2000,2000,2000,2000,2000,2000,2000,2000,2000,2000,2000,2000,2000,2000,2000,2000,2000,2000,2000,2000,2000,2000,2000,2000,2000,2000.01,2000.01,2000.01,2000.01,2000.01,2000.01,2000.01,2000.01,2000.01,2000.01,2000.01,2000.01,2000.01,2000.01,2000.01,2000.01,2000.01,2000.01,2000.01,2000.01,2000.02,2000.02,2000.02,2000.02,2000.02,2000.02,2000.02,2000.03,2000.03,2000.03,2000.03,2000.04,2000.04,2000.04,2000.05,2000.05,2000.06,2000.07,2000.08,2000.09,2000.1,2000.11,2000.13,2000.15,2000.17,2000.2,2000.24,2000.29,2000.34,2000.42,2000.51,2000.61,2000.73,2000.87,2001.02,2001.2,2001.45,2001.81,2002.39,2003.41,2002.62,2001.08,1999.78,1998.68,1997.75,1997,1996.39,1995.93,1995.6,1995.4,1995.33,1995.39,1995.58,1995.89,1996.34,1996.93,1997.67,1998.57,1999.65,2000.92,2002.43,2003.34,2002.24,2001.61,2001.2,2000.92,2000.72,2000.58,2000.47,2000.39,2000.33,2000.28,2000.24,2000.21,2000.18,2000.17,2000.15,2000.14,2000.13,2000.12,2000.12,2000.12,2000.12,2000.12,2000.13,2000.13,2000.14,2000.15,2000.17,2000.19,2000.22,2000.26,2000.3,2000.36,2000.44,2000.54,2000.68,2000.86,2001.09,2001.4,2001.81,2002.32,2002.96,2002.41,2002,2001.79,2001.8,2002,2002.42,2002.96,2002.32,2001.8,2001.4,2001.1,2000.86,2000.69,2000.55,2000.46,2000.38,2000.32,2000.28,2000.25,2000.23,2000.21,2000.21,2000.21,2000.22,2000.25,2000.3,2000.37,2000.48,2000.62,2000.77,2000.87,2000.86,2000.77,2000.68,2000.61,2000.58,2000.57,2000.57,2000.58,2000.59,2000.58,2000.56,2000.53,2000.48,2000.43,2000.38,2000.33,2000.29,2000.25,2000.21,2000.18,2000.15,2000.13,2000.11,2000.1,2000.08,2000.07,2000.06,2000.05,2000.05,2000.04,2000.04,2000.03,2000.03,2000.03,2000.02,2000.02,2000.02,2000.02
2000,2000,2000,2000,2000,2000,2000,2000,2000,2000,2000,2000,2000,2000,2000,2000,2000,2000,2000,2000,2000.01,2000.01,2000.01,2000.01,2000.01,2000.01,2000.01,2000.01,2000.01,2000.01,2000.02,2000.02,2000.02,2000.02,2000.02,2000.02,2000.02,2000.02,2000.02,2000.02,2000.01,2000.01,2000.01,2000.01,2000.01,2000.01,2000.01,2000.01,2000.01,2000.01,2000.01,2000,2000,2000,2000,2000,2000,2000,2000,2000,2000,2000,2000,2000,2000,2000,2000,2000,2000,2000,2000,2000,2000,2000,2000,2000,2000,2000,2000,2000,2000,2000,2000,2000,2000,2000,2000,2000,2000,2000,2000,2000,2000,2000,2000,2000,2000,2000,2000,2000,2000,2000,2000,2000,2000,2000,2000,2000,2000,2000,2000,2000,2000,2000,2000,2000,2000,2000,2000,2000,2000,2000,2000,2000,2000,2000,2000,2000,2000,2000,2000,2000,2000.01,2000.01,2000.01,2000.01,2000.01,2000.01,2000.01,2000.01,2000.01,2000.01,2000.01,2000.02,2000.02,2000.02,2000.02,2000.02,2000.03,2000.03,2000.03,2000.04,2000.04,2000.04,2000.04,2000.04,2000.04,2000.03,2000.03,2000.03,2000.03,2000.02,2000.02,2000.02,2000.02,2000.02,2000.02,2000.01,2000.01,2000.01,2000.01,2000.01,2000.01,2000.01,2000.01,2000.01,2000.01,2000.01,2000.01,2000.01,2000.01,2000.01,2000.01,2000.01,2000.01,2000.01,2000.01,2000.01,2000.01,2000.01,2000.01,2000.01,2000.01,2000.01,2000.01,2000,2000,2000,2000,2000,2000,2000,2000,2000,2000,2000,2000,2000,2000,2000,2000,2000,2000,2000,2000,2000,2000,2000,2000,2000,2000,2000,2000,2000,2000,2000,2000,2000,2000,2000,2000,2000,2000,2000,2000,2000.01,2000.01,2000.01,2000.01,2000.01,2000.01,2000.01,2000.01,2000.01,2000.01,2000.01,2000.01,2000.01,2000.01,2000.01,2000.01,2000.01,2000.01,2000.01,2000.01,2000.02,2000.02,2000.02,2000.02,2000.02,2000.02,2000.02,2000.03,2000.03,2000.03,2000.03,2000.04,2000.04,2000.04,2000.05,2000.05,2000.06,2000.07,2000.07,2000.08,2000.09,2000.11,2000.12,2000.14,2000.16,2000.19,2000.22,2000.27,2000.32,2000.38,2000.45,2000.54,2000.64,2000.76,2000.92,2001.12,2001.4,2001.81,2002.48,2003.67,2002.24,2000.72,1999.44,1998.36,1997.45,1996.7,1996.1,1995.64,1995.32,1995.12,1995.05,1995.11,1995.3,1995.61,1996.06,1996.64,1997.37,1998.27,1999.33,2000.59,2002.07,2003.66,2002.4,2001.69,2001.25,2000.95,2000.74,2000.59,2000.48,2000.4,2000.33,2000.28,2000.24,2000.21,2000.19,2000.17,2000.15,2000.14,2000.13,2000.12,2000.12,2000.12,2000.11,2000.12,2000.12,2000.13,2000.14,2000.15,2000.16,2000.18,2000.2,2000.23,2000.27,2000.32,2000.38,2000.46,2000.56,2000.68,2000.84,2001.03,2001.27,2001.54,2001.83,2002.13,2002.37,2002.5,2002.5,2002.37,2002.12,2001.83,2001.54,2001.27,2001.04,2000.85,2000.69,2000.57,2000.47,2000.39,2000.34,2000.29,2000.26,2000.23,2000.21,2000.2,2000.2,2000.21,2000.23,2000.27,2000.35,2000.48,2000.72,2001.14,2001.35,2001.07,2001.23,2001.41,2000.95,2000.69,2000.56,2000.49,2000.47,2000.45,2000.44,2000.43,2000.42,2000.39,2000.36,2000.33,2000.3,2000.26,2000.23,2000.2,2000.17,2000.15,2000.13,2000.11,2000.1,2000.08,2000.07,2000.06,2000.06,2000.05,2000.04,2000.04,2000.04,2000.03,2000.03,2000.02,2000.02,2000.02,2000.02,2000.02
2000,2000,2000,2000,2000,2000,2000,2000,2000,2000,2000,2000,2000,2000,2000,2000,2000,2000,2000,2000.01,2000.01,2000.01,2000.01,2000.01,2000.01,2000.01,2000.01,2000.01,2000.02,2000.02,2000.02,2000.02,2000.02,2000.02,2000.02,2000.02,2000.02,2000.02,2000.02,2000.02,2000.02,2000.02,2000.02,2000.01,2000.01,2000.01,2000.01,2000.01,2000.01,2000.01,2000.01,2000.01,2000,2000,2000,2000,2000,2000,2000,2000,2000,2000,2000,2000,2000,2000,2000,2000,2000,2000,2000,2000,2000,2000,2000,2000,2000,2000,2000,2000,2000,2000,2000,2000,2000,2000,2000,2000,2000,2000,2000,2000,2000,2000,2000,2000,2000,2000,2000,2000,2000,2000,2000,2000,2000,2000,2000,2000,2000,2000,2000,2000,2000,2000,2000,2000,2000,2000,2000,2000,2000,2000,2000,2000,2000,2000,2000,2000,2000,2000,2000,2000.01,2000.01,2000.01,2000.01,2000.01,2000.01,2000.01,2000.01,2000.01,2000.01,2000.01,2000.02,2000.02,2000.02,2000.02,2000.03,2000.03,2000.03,2000.04,2000.04,2000.05,2000.05,2000.05,2000.05,2000.05,2000.05,2000.05,2000.04,2000.04,2000.03,2000.03,2000.03,2000.02,2000.02,2000.02,2000.02,2000.02,2000.01,2000.01,2000.01,2000.01,2000.01,2000.01,2000.01,2000.01,2000.01,2000.01,2000.01,2000.01,2000.01,2000.01,2000.01,2000.01,2000.01,2000.01,2000.01,2000.01,2000.01,2000.01,2000.01,2000.01,2000.01,2000.01,2000,2000,2000,2000,2000,2000,2000,2000,2000,2000,2000,2000,2000,2000,2000,2000,2000,2000,2000,2000,2000,2000,2000,2000,2000,2000,2000,2000,2000,2000,2000,2000,2000,2000,2000,2000,2000,2000,2000,2000,2000,2000.01,2000.01,2000.01,2000.01,2000.01,2000.01,2000.01,2000.01,2000.01,2000.01,2000.01,2000.01,2000.01,2000.01,2000.01,2000.01,2000.01,2000.01,2000.01,2000.02,2000.02,2000.02,2000.02,2000.02,2000.02,2000.02,2000.02,2000.03,2000.03,2000.03,2000.03,2000.04,2000.04,2000.04,2000.05,2000.05,2000.06,2000.07,2000.07,2000.08,2000.09,2000.11,2000.12,2000.14,2000.16,2000.18,2000.21,2000.25,2000.29,2000.35,2000.41,2000.49,2000.59,2000.71,2000.86,2001.07,2001.37,2001.82,2002.53,2003.78,2002.02,2000.53,1999.26,1998.18,1997.28,1996.54,1995.94,1995.49,1995.17,1994.97,1994.9,1994.96,1995.15,1995.46,1995.9,1996.48,1997.21,1998.1,1999.16,2000.41,2001.88,2003.61,2002.49,2001.75,2001.28,2000.97,2000.76,2000.6,2000.49,2000.4,2000.34,2000.28,2000.24,2000.21,2000.19,2000.17,2000.15,2000.14,2000.13,2000.12,2000.12,2000.11,2000.11,2000.12,2000.12,2000.12,2000.13,2000.14,2000.15,2000.17,2000.19,2000.21,2000.24,2000.28,2000.33,2000.39,2000.46,2000.55,2000.66,2000.78,2000.92,2001.08,2001.24,2001.38,2001.5,2001.56,2001.56,2001.5,2001.38,2001.24,2001.08,2000.93,2000.79,2000.66,2000.56,2000.47,2000.4,2000.34,2000.3,2000.26,2000.23,2000.21,2000.2,2000.19,2000.2,2000.21,2000.24,2000.3,2000.42,2000.67,2001.29,2000.61,1999.94,1999.68,1999.82,2000.36,2001.38,2000.92,2000.6,2000.47,2000.4,2000.37,2000.35,2000.34,2000.32,2000.3,2000.28,2000.26,2000.24,2000.21,2000.19,2000.17,2000.15,2000.13,2000.11,2000.1,2000.09,2000.08,2000.07,2000.06,2000.05,2000.05,2000.04,2000.04,2000.03,2000.03,2000.03,2000.02,2000.02,2000.02,2000.02,2000.02
2000,2000,2000,2000,2000,2000,2000,2000,2000,2000,2000,2000,2000,2000,2000,2000,2000,2000,2000.01,2000.01,2000.01,2000.01,2000.01,2000.01,2000.01,2000.01,2000.01,2000.02,2000.02,2000.02,2000.02,2000.03,2000.03,2000.03,2000.03,2000.03,2000.03,2000.03,2000.03,2000.03,2000.02,2000.02,2000.02,2000.02,2000.01,2000.01,2000.01,2000.01,2000.01,2000.01,2000.01,2000.01,2000.01,2000,2000,2000,2000,2000,2000,2000,2000,2000,2000,2000,2000,2000,2000,2000,2000,2000,2000,2000,2000,2000,2000,2000,2000,2000,2000,2000,2000,2000,2000,2000,2000,2000,2000,2000,2000,2000,2000,2000,2000,2000,2000,2000,2000,2000,2000,2000,2000,2000,2000,2000,2000,2000,2000,2000,2000,2000,2000,2000,2000,2000,2000,2000,2000,2000,2000,2000,2000,2000,2000,2000,2000,2000,2000,2000,2000,2000,2000,2000.01,2000.01,2000.01,2000.01,2000.01,2000.01,2000.01,2000.01,2000.01,2000.01,2000.01,2000.02,2000.02,2000.02,2000.03,2000.03,2000.04,2000.04,2000.05,2000.06,2000.07,2000.07,2000.07,2000.07,2000.07,2000.07,2000.06,2000.05,2000.05,2000.04,2000.03,2000.03,2000.03,2000.02,2000.02,2000.02,2000.02,2000.02,2000.01,2000.01,2000.01,2000.01,2000.01,2000.01,2000.01,2000.01,2000.01,2000.01,2000.01,2000.01,2000.01,2000.01,2000.01,2000.01,2000.01,2000.01,2000.01,2000.01,2000.01,2000.01,2000.01,2000,2000,2000,2000,2000,2000,2000,2000,2000,2000,2000,2000,2000,2000,2000,2000,2000,2000,2000,2000,2000,2000,2000,2000,2000,2000,2000,2000,2000,2000,2000.01,2000.01,2000.01,2000,2000,2000,2000,2000,2000,2000,2000,2000,2000,2000.01,2000.01,2000.01,2000.01,2000.01,2000.01,2000.01,2000.01,2000.01,2000.01,2000.01,2000.01,2000.01,2000.01,2000.01,2000.01,2000.01,2000.01,2000.01,2000.02,2000.02,2000.02,2000.02,2000.02,2000.02,2000.02,2000.03,2000.03,2000.03,2000.03,2000.03,2000.04,2000.04,2000.04,2000.05,2000.05,2000.06,2000.07,2000.07,2000.08,2000.09,2000.1,2000.12,2000.13,2000.15,2000.18,2000.21,2000.24,2000.28,2000.33,2000.39,2000.46,2000.55,2000.67,2000.83,2001.04,2001.34,2001.79,2002.52,2003.73,2001.97,2000.49,1999.22,1998.15,1997.25,1996.51,1995.92,1995.46,1995.14,1994.95,1994.88,1994.94,1995.12,1995.43,1995.88,1996.46,1997.19,1998.07,1999.13,2000.38,2001.85,2003.58,2002.51,2001.75,2001.28,2000.97,2000.76,2000.6,2000.49,2000.4,2000.34,2000.28,2000.24,2000.21,2000.19,2000.17,2000.15,2000.14,2000.13,2000.12,2000.11,2000.11,2000.11,2000.11,2000.11,2000.12,2000.12,2000.13,2000.14,2000.16,2000.17,2000.19,2000.22,2000.25,2000.28,2000.33,2000.38,2000.45,2000.52,2000.6,2000.69,2000.79,2000.88,2000.96,2001.02,2001.06,2001.06,2001.02,2000.96,2000.88,2000.79,2000.7,2000.61,2000.53,2000.45,2000.39,2000.34,2000.3,2000.26,2000.23,2000.21,2000.2,2000.19,2000.18,2000.19,2000.21,2000.25,2000.32,2000.5,2000.95,2000.75,1999.67,1999.05,1998.81,1998.93,1999.43,2000.35,2001.36,2000.69,2000.46,2000.36,2000.32,2000.29,2000.27,2000.26,2000.24,2000.23,2000.21,2000.19,2000.17,2000.16,2000.14,2000.13,2000.11,2000.1,2000.09,2000.08,2000.07,2000.06,2000.05,2000.05,2000.04,2000.04,2000.03,2000.03,2000.03,2000.02,2000.02,2000.02,2000.02,2000.02,2000.02
2000,2000,2000,2000,2000,2000,2000,2000,2000,2000,2000,2000,2000,2000,2000,2000,2000,2000,2000.01,2000.01,2000.01,2000.01,2000.01,2000.01,2000.01,2000.02,2000.02,2000.02,2000.02,2000.03,2000.03,2000.03,2000.04,2000.04,2000.04,2000.04,2000.04,2000.04,2000.04,2000.03,2000.03,2000.03,2000.02,2000.02,2000.02,2000.01,2000.01,2000.01,2000.01,2000.01,2000.01,2000.01,2000.01,2000,2000,2000,2000,2000,2000,2000,2000,2000,2000,2000,2000,2000,2000,2000,2000,2000,2000,2000,2000,2000,2000,2000,2000,2000,2000,2000,2000,2000,2000,2000,2000,2000,2000,2000,2000,2000,2000,2000,2000,2000,2000,2000,2000,2000,2000,2000,2000,2000,2000,2000,2000,2000,2000,2000,2000,2000,2000,2000,2000,2000,2000,2000,2000,2000,2000,2000,2000,2000,2000,2000,2000,2000,2000,2000,2000,2000,2000.01,2000.01,2000.01,2000.01,2000.01,2000.01,2000.01,2000.01,2000.01,2000.01,2000.01,2000.02,2000.02,2000.02,2000.03,2000.03,2000.04,2000.05,2000.06,2000.07,2000.08,2000.09,2000.1,2000.11,2000.11,2000.1,2000.09,2000.08,2000.07,2000.06,2000.05,2000.04,2000.04,2000.03,2000.03,2000.02,2000.02,2000.02,2000.02,2000.02,2000.01,2000.01,2000.01,2000.01,2000.01,2000.01,2000.01,2000.01,2000.01,2000.01,2000.01,2000.01,2000.01,2000.01,2000.01,2000.01,2000.01,2000.01,2000.01,2000.01,2000.01,2000.01,2000.01,2000.01,2000,2000,2000,2000,2000,2000,2000,2000,2000,2000,2000,2000,2000,2000,2000,2000,2000,2000,2000,2000,2000,2000,2000,2000,2000,2000,2000.01,2000.01,2000.01,2000.01,2000.01,2000.01,2000,2000,2000,2000,2000,2000,2000,2000,2000,2000.01,2000.01,2000.01,2000.01,2000.01,2000.01,2000.01,2000.01,2000.01,2000.01,2000.01,2000.01,2000.01,2000.01,2000.01,2000.01,2000.01,2000.01,2000.01,2000.02,2000.02,2000.02,2000.02,2000.02,2000.02,2000.02,2000.03,2000.03,2000.03,2000.03,2000.03,2000.04,2000.04,2000.04,2000.05,2000.05,2000.06,2000.06,2000.07,2000.08,2000.09,2000.1,2000.11,2000.13,2000.15,2000.17,2000.2,2000.23,2000.27,2000.31,2000.37,2000.44,2000.53,2000.64,2000.79,2001,2001.3,2001.74,2002.44,2003.7,2002.09,2000.6,1999.33,1998.25,1997.35,1996.61,1996.02,1995.56,1995.24,1995.05,1994.98,1995.04,1995.22,1995.54,1995.98,1996.57,1997.3,1998.18,1999.25,2000.5,2001.98,2003.72,2002.44,2001.72,2001.26,2000.96,2000.75,2000.6,2000.48,2000.4,2000.33,2000.28,2000.24,2000.21,2000.18,2000.16,2000.15,2000.14,2000.13,2000.12,2000.11,2000.11,2000.11,2000.11,2000.11,2000.11,2000.12,2000.12,2000.13,2000.14,2000.16,2000.17,2000.19,2000.22,2000.25,2000.28,2000.32,2000.37,2000.42,2000.47,2000.53,2000.59,2000.65,2000.7,2000.74,2000.75,2000.75,2000.74,2000.7,2000.65,2000.6,2000.54,2000.48,2000.42,2000.37,2000.33,2000.29,2000.26,2000.23,2000.21,2000.19,2000.18,2000.17,2000.17,2000.18,2000.2,2000.25,2000.34,2000.57,2001.24,2000.19,1999.16,1998.57,1998.34,1998.45,1998.93,1999.8,2001.19,2000.77,2000.46,2000.34,2000.28,2000.25,2000.23,2000.21,2000.2,2000.18,2000.17,2000.16,2000.14,2000.13,2000.12,2000.11,2000.1,2000.09,2000.08,2000.07,2000.06,2000.05,2000.05,2000.04,2000.04,2000.04,2000.03,2000.03,2000.03,2000.02,2000.02,2000.02,2000.02,2000.02,2000.02
2000,2000,2000,2000,2000,2000,2000,2000,2000,2000,2000,2000,2000,2000,2000,2000,2000,2000.01,2000.01,2000.01,2000.01,2000.01,2000.01,2000.01,2000.02,2000.02,2000.02,2000.03,2000.03,2000.03,2000.04,2000.05,2000.05,2000.05,2000.06,2000.06,2000.06,2000.05,2000.05,2000.04,2000.04,2000.03,2000.03,2000.02,2000.02,2000.02,2000.01,2000.01,2000.01,2000.01,2000.01,2000.01,2000.01,2000.01,2000,2000,2000,2000,2000,2000,2000,2000,2000,2000,2000,2000,2000,2000,2000,2000,2000,2000,2000,2000,2000,2000,2000,2000,2000,2000,2000,2000,2000,2000,2000,2000,2000,2000,2000,2000,2000,2000,2000,2000,2000,2000,2000,2000,2000,2000,2000,2000,2000,2000,2000,2000,2000,2000,2000,2000,2000,2000,2000,2000,2000,2000,2000,2000,2000,2000,2000,2000,2000,2000,2000,2000,2000,2000,2000,2000,2000.01,2000.01,2000.01,2000.01,2000.01,2000.01,2000.01,2000.01,2000.01,2000.01,2000.02,2000.02,2000.02,2000.03,2000.03,2000.04,2000.05,2000.06,2000.08,2000.1,2000.12,2000.14,2000.16,2000.17,2000.17,2000.16,2000.14,2000.12,2000.1,2000.08,2000.06,2000.05,2000.04,2000.03,2000.03,2000.03,2000.02,2000.02,2000.02,2000.02,2000.01,2000.01,2000.01,2000.01,2000.01,2000.01,2000.01,2000.01,2000.01,2000.01,2000.01,2000.01,2000.01,2000.01,2000.01,2000.01,2000.01,2000.01,2000.01,2000.01,2000.01,2000.01,2000.01,2000.01,2000.01,2000.01,2000,2000,2000,2000,2000,2000,2000,2000,2000,2000,2000,2000,2000,2000,2000,2000,2000,2000,2000,2000,2000,2000.01,2000.01,2000.01,2000.01,2000.01,2000.01,2000.01,2000.01,2000.01,2000.01,2000,2000,2000,2000,2000,2000,2000,2000,2000.01,2000.01,2000.01,2000.01,2000.01,2000.01,2000.01,2000.01,2000.01,2000.01,2000.01,2000.01,2000.01,2000.01,2000.01,2000.01,2000.01,2000.01,2000.01,2000.02,2000.02,2000.02,2000.02,2000.02,2000.02,2000.02,2000.03,2000.03,2000.03,2000.03,2000.03,2000.04,2000.04,2000.04,2000.05,2000.05,2000.06,2000.06,2000.07,2000.08,2000.09,2000.1,2000.11,2000.13,2000.14,2000.16,2000.19,2000.22,2000.25,2000.3,2000.35,2000.42,2000.5,2000.61,2000.76,2000.95,2001.24,2001.65,2002.3,2003.42,2002.38,2000.87,1999.59,1998.5,1997.6,1996.85,1996.25,1995.79,1995.47,1995.27,1995.2,1995.26,1995.45,1995.77,1996.22,1996.8,1997.54,1998.44,1999.51,2000.77,2002.27,2003.47,2002.31,2001.64,2001.22,2000.93,2000.73,2000.58,2000.47,2000.39,2000.33,2000.28,2000.24,2000.21,2000.18,2000.16,2000.15,2000.13,2000.12,2000.12,2000.11,2000.11,2000.1,2000.1,2000.11,2000.11,2000.11,2000.12,2000.12,2000.13,2000.14,2000.16,2000.17,2000.19,2000.22,2000.24,2000.27,2000.3,2000.34,2000.38,2000.42,2000.46,2000.5,2000.53,2000.55,2000.56,2000.56,2000.55,2000.53,2000.5,2000.46,2000.42,2000.39,2000.35,2000.31,2000.28,2000.25,2000.23,2000.21,2000.19,2000.18,2000.17,2000.16,2000.16,2000.17,2000.2,2000.24,2000.34,2000.58,2001.34,2000.05,1999.04,1998.45,1998.22,1998.33,1998.8,1999.66,2001.03,2000.78,2000.44,2000.31,2000.25,2000.21,2000.19,2000.18,2000.16,2000.15,2000.14,2000.13,2000.12,2000.11,2000.1,2000.09,2000.08,2000.08,2000.07,2000.06,2000.05,2000.05,2000.04,2000.04,2000.04,2000.03,2000.03,2000.03,2000.03,2000.02,2000.02,2000.02,2000.02,2000.02,2000.01
2000,2000,2000,2000,2000,2000,2000,2000,2000,2000,2000,2000,2000,2000,2000,2000,2000.01,2000.01,2000.01,2000.01,2000.01,2000.01,2000.01,2000.01,2000.02,2000.02,2000.03,2000.03,2000.04,2000.05,2000.05,2000.06,2000.07,2000.08,2000.08,2000.08,2000.08,2000.08,2000.07,2000.06,2000.05,2000.04,2000.04,2000.03,2000.02,2000.02,2000.02,2000.01,2000.01,2000.01,2000.01,2000.01,2000.01,2000.01,2000,2000,2000,2000,2000,2000,2000,2000,2000,2000,2000,2000,2000,2000,2000,2000,2000,2000,2000,2000,2000,2000,2000,2000,2000,2000,2000,2000,2000,2000,2000,2000,2000,2000,2000,2000,2000,2000,2000,2000,2000,2000,2000,2000,2000,2000,2000,2000,2000,2000,2000,2000,2000,2000,2000,2000,2000,2000,2000,2000,2000,2000,2000,2000,2000,2000,2000,2000,2000,2000,2000,2000,2000,2000,2000,2000.01,2000.01,2000.01,2000.01,2000.01,2000.01,2000.01,2000.01,2000.01,2000.01,2000.01,2000.02,2000.02,2000.02,2000.03,2000.04,2000.05,2000.06,2000.08,2000.1,2000.14,2000.18,2000.23,2000.28,2000.31,2000.31,2000.28,2000.23,2000.18,2000.14,2000.11,2000.08,2000.06,2000.05,2000.04,2000.03,2000.03,2000.02,2000.02,2000.02,2000.02,2000.02,2000.01,2000.01,2000.01,2000.01,2000.01,2000.01,2000.01,2000.01,2000.01,2000.01,2000.01,2000.01,2000.01,2000.01,2000.01,2000.01,2000.01,2000.01,2000.01,2000.01,2000.01,2000.01,2000.01,2000.01,2000.01,2000.01,2000.01,2000,2000,2000,2000,2000,2000,2000,2000,2000,2000,2000,2000,2000,2000,2000,2000,2000,2000,2000,2000.01,2000.01,2000.01,2000.01,2000.01,2000.01,2000.01,2000.01,2000.01,2000.01,2000,2000,2000,2000,2000,2000,2000,2000,2000.01,2000.01,2000.01,2000.01,2000.01,2000.01,2000.01,2000.01,2000.01,2000.01,2000.01,2000.01,2000.01,2000.01,2000.01,2000.01,2000.01,2000.01,2000.01,2000.02,2000.02,2000.02,2000.02,2000.02,2000.02,2000.02,2000.02,2000.03,2000.03,2000.03,2000.03,2000.04,2000.04,2000.04,2000.05,2000.05,2000.06,2000.06,2000.07,2000.08,2000.09,2000.1,2000.11,2000.12,2000.14,2000.16,2000.18,2000.21,2000.24,2000.28,2000.33,2000.4,2000.48,2000.58,2000.72,2000.9,2001.16,2001.54,2002.11,2003.06,2002.83,2001.3,2000,1998.9,1997.98,1997.22,1996.62,1996.15,1995.83,1995.63,1995.56,1995.62,1995.81,1996.13,1996.58,1997.18,1997.93,1998.83,1999.92,2001.21,2002.73,2003.1,2002.12,2001.54,2001.15,2000.89,2000.7,2000.56,2000.46,2000.38,2000.32,2000.27,2000.23,2000.2,2000.18,2000.16,2000.14,2000.13,2000.12,2000.11,2000.11,2000.1,2000.1,2000.1,2000.1,2000.1,2000.11,2000.11,2000.12,2000.12,2000.13,2000.14,2000.16,2000.17,2000.19,2000.21,2000.23,2000.26,2000.28,2000.31,2000.34,2000.36,2000.39,2000.41,2000.42,2000.43,2000.43,2000.42,2000.41,2000.39,2000.37,2000.34,2000.32,2000.29,2000.26,2000.24,2000.22,2000.2,2000.18,2000.17,2000.16,2000.15,2000.15,2000.15,2000.16,2000.18,2000.23,2000.32,2000.53,2001.12,2000.32,1999.28,1998.67,1998.44,1998.55,1999.03,1999.91,2001.32,2000.69,2000.39,2000.27,2000.22,2000.18,2000.16,2000.15,2000.14,2000.13,2000.12,2000.11,2000.1,2000.1,2000.09,2000.08,2000.07,2000.07,2000.06,2000.05,2000.05,2000.05,2000.04,2000.04,2000.03,2000.03,2000.03,2000.03,2000.02,2000.02,2000.02,2000.02,2000.02,2000.01,2000.01
2000,2000,2000,2000,2000,2000,2000,2000,2000,2000,2000,2000,2000,2000,2000,2000,2000.01,2000.01,2000.01,2000.01,2000.01,2000.01,2000.01,2000.02,2000.02,2000.03,2000.03,2000.04,2000.05,2000.06,2000.07,2000.09,2000.1,2000.12,2000.13,2000.13,2000.13,2000.11,2000.1,2000.08,2000.07,2000.06,2000.05,2000.04,2000.03,2000.02,2000.02,2000.02,2000.01,2000.01,2000.01,2000.01,2000.01,2000.01,2000.01,2000,2000,2000,2000,2000,2000,2000,2000,2000,2000,2000,2000,2000,2000,2000,2000,2000,2000,2000,2000,2000,2000,2000,2000,2000,2000,2000,2000,2000,2000,2000,2000,2000,2000,2000,2000,2000,2000,2000,2000,2000,2000,2000,2000,2000,2000,2000,2000,2000,2000,2000,2000,2000,2000,2000,2000,2000,2000,2000,2000,2000,2000,2000,2000,2000,2000,2000,2000,2000,2000,2000,2000,2000,2000,2000.01,2000.01,2000.01,2000.01,2000.01,2000.01,2000.01,2000.01,2000.01,2000.01,2000.02,2000.02,2000.02,2000.03,2000.03,2000.04,2000.06,2000.07,2000.1,2000.14,2000.21,2000.29,2000.41,2000.53,2000.62,2000.63,2000.54,2000.41,2000.3,2000.21,2000.15,2000.11,2000.08,2000.06,2000.05,2000.04,2000.03,2000.03,2000.02,2000.02,2000.02,2000.02,2000.02,2000.01,2000.01,2000.01,2000.01,2000.01,2000.01,2000.01,2000.01,2000.01,2000.01,2000.01,2000.01,2000.01,2000.01,2000.01,2000.01,2000.01,2000.01,2000.01,2000.01,2000.01,2000.01,2000.01,2000.01,2000.01,2000.01,2000.01,2000,2000,2000,2000,2000,2000,2000,2000,2000,2000,2000,2000,2000,2000,2000,2000,2000,2000,2000.01,2000.01,2000.01,2000.01,2000.01,2000.01,2000.01,2000.01,2000.01,2000.01,2000.01,2000,2000,2000,2000,2000,2000,2000,2000.01,2000.01,2000.01,2000.01,2000.01,2000.01,2000.01,2000.01,2000.01,2000.01,2000.01,2000.01,2000.01,2000.01,2000.01,2000.01,2000.01,2000.01,2000.01,2000.02,2000.02,2000.02,2000.02,2000.02,2000.02,2000.02,2000.02,2000.03,2000.03,2000.03,2000.03,2000.04,2000.04,2000.04,2000.05,2000.05,2000.06,2000.06,2000.07,2000.08,2000.08,2000.09,2000.1,2000.12,2000.13,2000.15,2000.17,2000.2,2000.23,2000.27,2000.32,2000.38,2000.45,2000.55,2000.67,2000.84,2001.07,2001.41,2001.89,2002.67,2003.47,2001.89,2000.56,1999.44,1998.51,1997.74,1997.12,1996.65,1996.32,1996.12,1996.05,1996.11,1996.3,1996.63,1997.09,1997.7,1998.46,1999.38,2000.49,2001.81,2003.37,2002.7,2001.91,2001.41,2001.07,2000.83,2000.66,2000.53,2000.44,2000.37,2000.31,2000.26,2000.23,2000.2,2000.17,2000.16,2000.14,2000.13,2000.12,2000.11,2000.11,2000.1,2000.1,2000.1,2000.1,2000.1,2000.1,2000.1,2000.11,2000.11,2000.12,2000.13,2000.14,2000.15,2000.17,2000.18,2000.2,2000.22,2000.24,2000.26,2000.27,2000.29,2000.31,2000.32,2000.33,2000.34,2000.34,2000.34,2000.33,2000.31,2000.3,2000.28,2000.26,2000.24,2000.23,2000.21,2000.19,2000.18,2000.17,2000.16,2000.15,2000.14,2000.14,2000.14,2000.15,2000.17,2000.21,2000.28,2000.43,2000.79,2001.04,1999.92,1999.28,1999.03,1999.15,1999.65,2000.58,2001.06,2000.54,2000.33,2000.24,2000.19,2000.16,2000.14,2000.13,2000.12,2000.11,2000.1,2000.1,2000.09,2000.08,2000.08,2000.07,2000.06,2000.06,2000.05,2000.05,2000.04,2000.04,2000.04,2000.03,2000.03,2000.03,2000.03,2000.02,2000.02,2000.02,2000.02,2000.02,2000.02,2000.01,2000.01
2000,2000,2000,2000,2000,2000,2000,2000,2000,2000,2000,2000,2000,2000,2000,2000,2000.01,2000.01,2000.01,2000.01,2000.01,2000.01,2000.02,2000.02,2000.02,2000.03,2000.04,2000.05,2000.06,2000.08,2000.1,2000.13,2000.16,2000.19,2000.21,2000.21,2000.2,2000.18,2000.15,2000.12,2000.1,2000.07,2000.06,2000.05,2000.04,2000.03,2000.02,2000.02,2000.01,2000.01,2000.01,2000.01,2000.01,2000.01,2000.01,2000,2000,2000,2000,2000,2000,2000,2000,2000,2000,2000,2000,2000,2000,2000,2000,2000,2000,2000,2000,2000,2000,2000,2000,2000,2000,2000,2000,2000,2000,2000,2000,2000,2000,2000,2000,2000,2000,2000,2000,2000,2000,2000,2000,2000,2000,2000,2000,2000,2000,2000,2000,2000,2000,2000,2000,2000,2000,2000,2000,2000,2000,2000,2000,2000,2000,2000,2000,2000,2000,2000,2000,2000,2000,2000.01,2000.01,2000.01,2000.01,2000.01,2000.01,2000.01,2000.01,2000.01,2000.01,2000.02,2000.02,2000.02,2000.03,2000.04,2000.05,2000.07,2000.09,2000.13,2000.2,2000.31,2000.5,2000.82,2001.28,2001.19,2001.18,2001.3,2000.83,2000.51,2000.32,2000.2,2000.14,2000.09,2000.07,2000.05,2000.04,2000.03,2000.03,2000.02,2000.02,2000.02,2000.02,2000.02,2000.01,2000.01,2000.01,2000.01,2000.01,2000.01,2000.01,2000.01,2000.01,2000.01,2000.01,2000.01,2000.01,2000.01,2000.01,2000.01,2000.01,2000.01,2000.01,2000.01,2000.01,2000.01,2000.01,2000.01,2000.01,2000.01,2000.01,2000.01,2000.01,2000,2000,2000,2000,2000,2000,2000,2000,2000,2000,2000,2000,2000,2000,2000,2000,2000.01,2000.01,2000.01,2000.01,2000.01,2000.01,2000.01,2000.01,2000.01,2000.01,2000.01,2000.01,2000,2000,2000,2000,2000,2000,2000.01,2000.01,2000.01,2000.01,2000.01,2000.01,2000.01,2000.01,2000.01,2000.01,2000.01,2000.01,2000.01,2000.01,2000.01,2000.01,2000.01,2000.01,2000.01,2000.02,2000.02,2000.02,2000.02,2000.02,2000.02,2000.02,2000.02,2000.03,2000.03,2000.03,2000.03,2000.04,2000.04,2000.04,2000.05,2000.05,2000.06,2000.06,2000.07,2000.07,2000.08,2000.09,2000.1,2000.11,2000.13,2000.15,2000.17,2000.19,2000.22,2000.26,2000.3,2000.36,2000.42,2000.51,2000.63,2000.78,2000.98,2001.26,2001.67,2002.29,2003.28,2002.67,2001.3,2000.15,1999.19,1998.4,1997.77,1997.29,1996.95,1996.75,1996.68,1996.74,1996.94,1997.27,1997.74,1998.36,1999.14,2000.09,2001.23,2002.59,2003.34,2002.31,2001.68,2001.27,2000.98,2000.77,2000.62,2000.5,2000.42,2000.35,2000.3,2000.25,2000.22,2000.19,2000.17,2000.15,2000.14,2000.12,2000.12,2000.11,2000.1,2000.1,2000.1,2000.09,2000.09,2000.09,2000.1,2000.1,2000.1,2000.11,2000.11,2000.12,2000.13,2000.14,2000.15,2000.16,2000.17,2000.19,2000.2,2000.21,2000.23,2000.24,2000.25,2000.26,2000.27,2000.27,2000.28,2000.27,2000.27,2000.26,2000.25,2000.23,2000.22,2000.21,2000.19,2000.18,2000.17,2000.16,2000.15,2000.14,2000.14,2000.13,2000.13,2000.13,2000.14,2000.16,2000.18,2000.24,2000.34,2000.53,2000.95,2001.03,2000.32,2000.04,2000.17,2000.73,2001.21,2000.65,2000.4,2000.27,2000.2,2000.16,2000.14,2000.12,2000.11,2000.1,2000.1,2000.09,2000.08,2000.08,2000.07,2000.07,2000.06,2000.06,2000.05,2000.05,2000.04,2000.04,2000.04,2000.03,2000.03,2000.03,2000.03,2000.02,2000.02,2000.02,2000.02,2000.02,2000.02,2000.01,2000.01,2000.01
2000,2000,2000,2000,2000,2000,2000,2000,2000,2000,2000,2000,2000,2000,2000,2000.01,2000.01,2000.01,2000.01,2000.01,2000.01,2000.01,2000.02,2000.02,2000.03,2000.04,2000.05,2000.06,2000.08,2000.11,2000.15,2000.2,2000.26,2000.33,2000.38,2000.39,2000.36,2000.31,2000.24,2000.18,2000.14,2000.1,2000.07,2000.06,2000.04,2000.03,2000.03,2000.02,2000.02,2000.01,2000.01,2000.01,2000.01,2000.01,2000.01,2000,2000,2000,2000,2000,2000,2000,2000,2000,2000,2000,2000,2000,2000,2000,2000,2000,2000,2000,2000,2000,2000,2000,2000,2000,2000,2000,2000,2000,2000,2000,2000,2000,2000,2000,2000,2000,2000,2000,2000,2000,2000,2000,2000,2000,2000,2000,2000,2000,2000,2000,2000,2000,2000,2000,2000,2000,2000,2000,2000,2000,2000,2000,2000,2000,2000,2000,2000,2000,2000,2000,2000,2000,2000.01,2000.01,2000.01,2000.01,2000.01,2000.01,2000.01,2000.01,2000.01,2000.01,2000.01,2000.02,2000.02,2000.03,2000.03,2000.04,2000.05,2000.08,2000.11,2000.17,2000.27,2000.48,2000.92,2000.94,2000.12,1999.74,1999.73,2000.11,2000.91,2000.94,2000.49,2000.28,2000.17,2000.11,2000.08,2000.06,2000.04,2000.04,2000.03,2000.02,2000.02,2000.02,2000.02,2000.02,2000.01,2000.01,2000.01,2000.01,2000.01,2000.01,2000.01,2000.01,2000.01,2000.01,2000.01,2000.01,2000.01,2000.01,2000.01,2000.01,2000.01,2000.01,2000.01,2000.01,2000.01,2000.01,2000.01,2000.01,2000.01,2000.01,2000.01,2000.01,2000.01,2000.01,2000,2000,2000,2000,2000,2000,2000,2000,2000,2000,2000,2000,2000,2000,2000,2000.01,2000.01,2000.01,2000.01,2000.01,2000.01,2000.01,2000.01,2000.01,2000.01,2000.01,2000.01,2000.01,2000,2000,2000,2000,2000,2000.01,2000.01,2000.01,2000.01,2000.01,2000.01,2000.01,2000.01,2000.01,2000.01,2000.01,2000.01,2000.01,2000.01,2000.01,2000.01,2000.01,2000.01,2000.01,2000.02,2000.02,2000.02,2000.02,2000.02,2000.02,2000.02,2000.02,2000.03,2000.03,2000.03,2000.03,2000.04,2000.04,2000.04,2000.05,2000.05,2000.05,2000.06,2000.07,2000.07,2000.08,2000.09,2000.1,2000.11,2000.12,2000.14,2000.16,2000.18,2000.21,2000.24,2000.28,2000.33,2000.4,2000.48,2000.58,2000.71,2000.89,2001.12,2001.46,2001.93,2002.65,2003.65,2002.22,2001.03,2000.04,1999.23,1998.58,1998.09,1997.74,1997.53,1997.46,1997.52,1997.72,1998.06,1998.55,1999.19,1999.99,2000.97,2002.15,2003.56,2002.69,2001.95,2001.46,2001.13,2000.89,2000.71,2000.57,2000.47,2000.39,2000.33,2000.28,2000.24,2000.21,2000.18,2000.16,2000.15,2000.13,2000.12,2000.11,2000.11,2000.1,2000.1,2000.09,2000.09,2000.09,2000.09,2000.09,2000.09,2000.1,2000.1,2000.1,2000.11,2000.12,2000.12,2000.13,2000.14,2000.15,2000.16,2000.17,2000.18,2000.19,2000.2,2000.21,2000.22,2000.22,2000.23,2000.23,2000.23,2000.22,2000.22,2000.21,2000.2,2000.19,2000.18,2000.17,2000.16,2000.15,2000.14,2000.14,2000.13,2000.13,2000.12,2000.12,2000.12,2000.13,2000.14,2000.16,2000.2,2000.26,2000.36,2000.52,2000.78,2001.09,2001.29,2001.19,2000.89,2000.6,2000.41,2000.29,2000.21,2000.17,2000.14,2000.12,2000.11,2000.1,2000.09,2000.08,2000.08,2000.07,2000.07,2000.06,2000.06,2000.06,2000.05,2000.05,2000.04,2000.04,2000.04,2000.03,2000.03,2000.03,2000.03,2000.02,2000.02,2000.02,2000.02,2000.02,2000.02,2000.01,2000.01,2000.01,2000.01
2000,2000,2000,2000,2000,2000,2000,2000,2000,2000,2000,2000,2000,2000,2000,2000.01,2000.01,2000.01,2000.01,2000.01,2000.01,2000.02,2000.02,2000.02,2000.03,2000.04,2000.05,2000.08,2000.11,2000.15,2000.22,2000.32,2000.46,2000.63,2000.79,2000.84,2000.75,2000.58,2000.42,2000.29,2000.19,2000.13,2000.09,2000.07,2000.05,2000.04,2000.03,2000.02,2000.02,2000.01,2000.01,2000.01,2000.01,2000.01,2000.01,2000.01,2000,2000,2000,2000,2000,2000,2000,2000,2000,2000,2000,2000,2000,2000,2000,2000,2000,2000,2000,2000,2000,2000,2000,2000,2000,2000,2000,2000,2000,2000,2000,2000,2000,2000,2000,2000,2000,2000,2000,2000,2000,2000,2000,2000,2000,2000,2000,2000,2000,2000,2000,2000,2000,2000,2000,2000,2000,2000,2000,2000,2000,2000,2000,2000,2000,2000,2000,2000,2000,2000,2000,2000,2000.01,2000.01,2000.01,2000.01,2000.01,2000.01,2000.01,2000.01,2000.01,2000.01,2000.02,2000.02,2000.02,2000.03,2000.03,2000.04,2000.06,2000.08,2000.13,2000.2,2000.35,2000.71,2001.12,1999.9,1999.16,1998.8,1998.79,1999.14,1999.87,2001.07,2000.72,2000.36,2000.21,2000.13,2000.09,2000.06,2000.05,2000.04,2000.03,2000.03,2000.02,2000.02,2000.02,2000.02,2000.02,2000.01,2000.01,2000.01,2000.01,2000.01,2000.01,2000.01,2000.01,2000.01,2000.01,2000.01,2000.01,2000.01,2000.01,2000.01,2000.01,2000.01,2000.01,2000.01,2000.01,2000.01,2000.01,2000.01,2000.01,2000.01,2000.01,2000.01,2000.01,2000.01,2000.01,2000.01,2000,2000,2000,2000,2000,2000,2000,2000,2000,2000,2000,2000,2000,2000.01,2000.01,2000.01,2000.01,2000.01,2000.01,2000.01,2000.01,2000.01,2000.01,2000.01,2000.01,2000.01,2000.01,2000,2000,2000,2000,2000.01,2000.01,2000.01,2000.01,2000.01,2000.01,2000.01,2000.01,2000.01,2000.01,2000.01,2000.01,2000.01,2000.01,2000.01,2000.01,2000.01,2000.01,2000.02,2000.02,2000.02,2000.02,2000.02,2000.02,2000.02,2000.02,2000.02,2000.03,2000.03,2000.03,2000.03,2000.04,2000.04,2000.04,2000.04,2000.05,2000.05,2000.06,2000.06,2000.07,2000.08,2000.09,2000.1,2000.11,2000.12,2000.13,2000.15,2000.17,2000.2,2000.23,2000.27,2000.31,2000.37,2000.44,2000.53,2000.64,2000.79,2000.99,2001.25,2001.62,2002.14,2002.91,2003.35,2002.11,2001.07,2000.23,1999.56,1999.05,1998.69,1998.47,1998.4,1998.46,1998.67,1999.02,1999.53,2000.19,2001.02,2002.04,2003.28,2002.96,2002.16,2001.64,2001.26,2000.99,2000.79,2000.64,2000.53,2000.44,2000.37,2000.31,2000.27,2000.23,2000.2,2000.18,2000.16,2000.14,2000.13,2000.12,2000.11,2000.1,2000.1,2000.09,2000.09,2000.09,2000.08,2000.09,2000.09,2000.09,2000.09,2000.09,2000.1,2000.1,2000.11,2000.11,2000.12,2000.13,2000.13,2000.14,2000.15,2000.16,2000.16,2000.17,2000.18,2000.19,2000.19,2000.19,2000.19,2000.19,2000.19,2000.18,2000.18,2000.17,2000.17,2000.16,2000.15,2000.15,2000.14,2000.13,2000.13,2000.12,2000.12,2000.11,2000.11,2000.11,2000.12,2000.13,2000.14,2000.16,2000.2,2000.25,2000.32,2000.41,2000.5,2000.54,2000.52,2000.44,2000.35,2000.27,2000.21,2000.17,2000.14,2000.12,2000.1,2000.09,2000.09,2000.08,2000.07,2000.07,2000.07,2000.06,2000.06,2000.05,2000.05,2000.05,2000.04,2000.04,2000.04,2000.03,2000.03,2000.03,2000.03,2000.02,2000.02,2000.02,2000.02,2000.02,2000.02,2000.02,2000.01,2000.01,2000.01,2000.01
2000,2000,2000,2000,2000,2000,2000,2000,2000,2000,2000,2000,2000,2000,2000,2000.01,2000.01,2000.01,2000.01,2000.01,2000.01,2000.02,2000.02,2000.03,2000.04,2000.05,2000.06,2000.09,2000.13,2000.2,2000.32,2000.54,2000.91,2001.44,2000.88,2000.74,2001,2001.31,2000.77,2000.46,2000.28,2000.18,2000.12,2000.08,2000.06,2000.04,2000.03,2000.02,2000.02,2000.02,2000.01,2000.01,2000.01,2000.01,2000.01,2000.01,2000,2000,2000,2000,2000,2000,2000,2000,2000,2000,2000,2000,2000,2000,2000,2000,2000,2000,2000,2000,2000,2000,2000,2000,2000,2000,2000,2000,2000,2000,2000,2000,2000,2000,2000,2000,2000,2000,2000,2000,2000,2000,2000,2000,2000,2000,2000,2000,2000,2000,2000,2000,2000,2000,2000,2000,2000,2000,2000,2000,2000,2000,2000,2000,2000,2000,2000,2000,2000,2000,2000,2000.01,2000.01,2000.01,2000.01,2000.01,2000.01,2000.01,2000.01,2000.01,2000.01,2000.01,2000.02,2000.02,2000.02,2000.03,2000.03,2000.05,2000.06,2000.09,2000.14,2000.23,2000.43,2000.96,2000.45,1999.3,1998.6,1998.26,1998.25,1998.58,1999.28,2000.41,2000.99,2000.44,2000.24,2000.14,2000.1,2000.07,2000.05,2000.04,2000.03,2000.03,2000.02,2000.02,2000.02,2000.02,2000.02,2000.02,2000.01,2000.01,2000.01,2000.01,2000.01,2000.01,2000.01,2000.01,2000.01,2000.01,2000.01,2000.01,2000.01,2000.01,2000.01,2000.01,2000.01,2000.01,2000.01,2000.01,2000.01,2000.01,2000.01,2000.01,2000.01,2000.01,2000.01,2000.01,2000.01,2000.01,2000.01,2000,2000,2000,2000,2000,2000,2000,2000,2000,2000,2000,2000,2000.01,2000.01,2000.01,2000.01,2000.01,2000.01,2000.01,2000.01,2000.01,2000.01,2000.01,2000.01,2000.01,2000.01,2000,2000,2000,2000,2000.01,2000.01,2000.01,2000.01,2000.01,2000.01,2000.01,2000.01,2000.01,2000.01,2000.01,2000.01,2000.01,2000.01,2000.01,2000.01,2000.01,2000.01,2000.02,2000.02,2000.02,2000.02,2000.02,2000.02,2000.02,2000.02,2000.02,2000.03,2000.03,2000.03,2000.03,2000.04,2000.04,2000.04,2000.04,2000.05,2000.05,2000.06,2000.06,2000.07,2000.08,2000.08,2000.09,2000.1,2000.11,2000.13,2000.15,2000.17,2000.19,2000.22,2000.25,2000.29,2000.34,2000.4,2000.48,2000.58,2000.7,2000.86,2001.07,2001.36,2001.73,2002.25,2002.99,2003.4,2002.31,2001.43,2000.73,2000.19,1999.82,1999.59,1999.51,1999.58,1999.8,2000.17,2000.69,2001.38,2002.26,2003.33,2003.03,2002.28,2001.75,2001.37,2001.08,2000.87,2000.7,2000.58,2000.48,2000.4,2000.34,2000.29,2000.25,2000.22,2000.19,2000.17,2000.15,2000.14,2000.12,2000.11,2000.11,2000.1,2000.09,2000.09,2000.09,2000.08,2000.08,2000.08,2000.08,2000.08,2000.08,2000.09,2000.09,2000.09,2000.1,2000.1,2000.11,2000.11,2000.12,2000.12,2000.13,2000.14,2000.14,2000.15,2000.15,2000.16,2000.16,2000.16,2000.16,2000.16,2000.16,2000.16,2000.16,2000.15,2000.15,2000.14,2000.14,2000.13,2000.13,2000.12,2000.12,2000.11,2000.11,2000.11,2000.11,2000.11,2000.11,2000.11,2000.12,2000.14,2000.16,2000.18,2000.22,2000.25,2000.28,2000.3,2000.29,2000.26,2000.23,2000.19,2000.16,2000.13,2000.11,2000.1,2000.09,2000.08,2000.08,2000.07,2000.07,2000.06,2000.06,2000.05,2000.05,2000.05,2000.04,2000.04,2000.04,2000.04,2000.03,2000.03,2000.03,2000.03,2000.02,2000.02,2000.02,2000.02,2000.02,2000.02,2000.02,2000.01,2000.01,2000.01,2000.01,2000.01
2000,2000,2000,2000,2000,2000,2000,2000,2000,2000,2000,2000,2000,2000,2000,2000.01,2000.01,2000.01,2000.01,2000.01,2000.01,2000.02,2000.02,2000.03,2000.04,2000.05,2000.07,2000.11,2000.17,2000.27,2000.48,2000.93,2000.96,2000.04,1999.55,1999.43,1999.66,2000.27,2001.33,2000.75,2000.4,2000.23,2000.15,2000.1,2000.07,2000.05,2000.04,2000.03,2000.02,2000.02,2000.01,2000.01,2000.01,2000.01,2000.01,2000.01,2000,2000,2000,2000,2000,2000,2000,2000,2000,2000,2000,2000,2000,2000,2000,2000,2000,2000,2000,2000,2000,2000,2000,2000,2000,2000,2000,2000,2000,2000,2000,2000,2000,2000,2000,2000,2000,2000,2000,2000,2000,2000,2000,2000,2000,2000,2000,2000,2000,2000,2000,2000,2000,2000,2000,2000,2000,2000,2000,2000,2000,2000,2000,2000,2000,2000,2000,2000,2000,2000,2000,2000.01,2000.01,2000.01,2000.01,2000.01,2000.01,2000.01,2000.01,2000.01,2000.01,2000.01,2000.02,2000.02,2000.02,2000.03,2000.04,2000.05,2000.06,2000.09,2000.14,2000.24,2000.46,2001.1,2000.21,1999.09,1998.4,1998.06,1998.06,1998.38,1999.06,2000.17,2001.13,2000.48,2000.25,2000.15,2000.1,2000.07,2000.05,2000.04,2000.03,2000.03,2000.02,2000.02,2000.02,2000.02,2000.02,2000.02,2000.02,2000.01,2000.01,2000.01,2000.01,2000.01,2000.01,2000.01,2000.01,2000.01,2000.01,2000.01,2000.01,2000.01,2000.01,2000.01,2000.01,2000.01,2000.01,2000.01,2000.01,2000.01,2000.01,2000.01,2000.01,2000.01,2000.01,2000.01,2000.01,2000.01,2000.01,2000.01,2000,2000,2000,2000,2000,2000,2000,2000,2000,2000,2000,2000,2000.01,2000.01,2000.01,2000.01,2000.01,2000.01,2000.01,2000.01,2000.01,2000.01,2000.01,2000.01,2000.01,2000.01,2000,2000,2000,2000.01,2000.01,2000.01,2000.01,2000.01,2000.01,2000.01,2000.01,2000.01,2000.01,2000.01,2000.01,2000.01,2000.01,2000.01,2000.01,2000.01,2000.01,2000.01,2000.02,2000.02,2000.02,2000.02,2000.02,2000.02,2000.02,2000.02,2000.03,2000.03,2000.03,2000.03,2000.03,2000.04,2000.04,2000.04,2000.05,2000.05,2000.06,2000.06,2000.07,2000.07,2000.08,2000.09,2000.1,2000.11,2000.12,2000.14,2000.16,2000.18,2000.2,2000.23,2000.27,2000.31,2000.37,2000.43,2000.52,2000.62,2000.75,2000.92,2001.13,2001.41,2001.76,2002.23,2002.85,2003.68,2002.85,2002.11,2001.55,2001.15,2000.91,2000.83,2000.91,2001.13,2001.52,2002.07,2002.8,2003.73,2002.88,2002.25,2001.78,2001.42,2001.14,2000.92,2000.75,2000.62,2000.52,2000.44,2000.37,2000.31,2000.27,2000.23,2000.2,2000.18,2000.16,2000.14,2000.13,2000.12,2000.11,2000.1,2000.09,2000.09,2000.09,2000.08,2000.08,2000.08,2000.08,2000.08,2000.08,2000.08,2000.08,2000.08,2000.09,2000.09,2000.09,2000.1,2000.1,2000.11,2000.11,2000.12,2000.12,2000.13,2000.13,2000.14,2000.14,2000.14,2000.14,2000.14,2000.14,2000.14,2000.14,2000.14,2000.14,2000.14,2000.13,2000.13,2000.12,2000.12,2000.12,2000.11,2000.11,2000.1,2000.1,2000.1,2000.1,2000.1,2000.1,2000.11,2000.12,2000.13,2000.14,2000.16,2000.18,2000.19,2000.19,2000.19,2000.18,2000.16,2000.14,2000.12,2000.11,2000.1,2000.09,2000.08,2000.07,2000.07,2000.06,2000.06,2000.06,2000.05,2000.05,2000.05,2000.04,2000.04,2000.04,2000.04,2000.03,2000.03,2000.03,2000.03,2000.02,2000.02,2000.02,2000.02,2000.02,2000.02,2000.02,2000.01,2000.01,2000.01,2000.01,2000.01,2000.01
2000,2000,2000,2000,2000,2000,2000,2000,2000,2000,2000,2000,2000,2000,2000.01,2000.01,2000.01,2000.01,2000.01,2000.01,2000.01,2000.02,2000.02,2000.03,2000.04,2000.06,2000.08,2000.12,2000.2,2000.35,2000.68,2001.31,1999.99,1999.15,1998.69,1998.58,1998.79,1999.36,2000.33,2001.22,2000.55,2000.29,2000.17,2000.11,2000.07,2000.05,2000.04,2000.03,2000.02,2000.02,2000.01,2000.01,2000.01,2000.01,2000.01,2000.01,2000,2000,2000,2000,2000,2000,2000,2000,2000,2000,2000,2000,2000,2000,2000,2000,2000,2000,2000,2000,2000,2000,2000,2000,2000,2000,2000,2000,2000,2000,2000,2000,2000,2000,2000,2000,2000,2000,2000,2000,2000,2000,2000,2000,2000,2000,2000,2000,2000,2000,2000,2000,2000,2000,2000,2000,2000,2000,2000,2000,2000,2000,2000,2000,2000,2000,2000,2000,2000,2000,2000,2000.01,2000.01,2000.01,2000.01,2000.01,2000.01,2000.01,2000.01,2000.01,2000.01,2000.01,2000.02,2000.02,2000.02,2000.03,2000.04,2000.05,2000.06,2000.09,2000.14,2000.24,2000.44,2001,2000.37,1999.23,1998.53,1998.19,1998.19,1998.52,1999.2,2000.33,2001.04,2000.45,2000.24,2000.15,2000.1,2000.07,2000.05,2000.04,2000.03,2000.03,2000.03,2000.02,2000.02,2000.02,2000.02,2000.02,2000.02,2000.02,2000.02,2000.01,2000.01,2000.01,2000.01,2000.01,2000.01,2000.01,2000.01,2000.01,2000.01,2000.01,2000.01,2000.01,2000.01,2000.01,2000.01,2000.01,2000.01,2000.01,2000.01,2000.01,2000.01,2000.01,2000.01,2000.01,2000.01,2000.01,2000.01,2000.01,2000.01,2000.01,2000,2000,2000,2000,2000,2000,2000,2000,2000,2000,2000.01,2000.01,2000.01,2000.01,2000.01,2000.01,2000.01,2000.01,2000.01,2000.01,2000.01,2000.01,2000.01,2000.01,2000.01,2000,2000,2000.01,2000.01,2000.01,2000.01,2000.01,2000.01,2000.01,2000.01,2000.01,2000.01,2000.01,2000.01,2000.01,2000.01,2000.01,2000.01,2000.01,2000.01,2000.01,2000.02,2000.02,2000.02,2000.02,2000.02,2000.02,2000.02,2000.02,2000.03,2000.03,2000.03,2000.03,2000.03,2000.04,2000.04,2000.04,2000.05,2000.05,2000.05,2000.06,2000.06,2000.07,2000.08,2000.09,2000.09,2000.1,2000.12,2000.13,2000.15,2000.17,2000.19,2000.22,2000.25,2000.29,2000.33,2000.39,2000.46,2000.55,2000.65,2000.78,2000.94,2001.15,2001.4,2001.7,2002.08,2002.55,2003.09,2003.72,2003.14,2002.72,2002.47,2002.38,2002.46,2002.7,2003.11,2003.71,2003.12,2002.57,2002.1,2001.72,2001.41,2001.15,2000.95,2000.78,2000.65,2000.55,2000.46,2000.39,2000.33,2000.29,2000.25,2000.22,2000.19,2000.17,2000.15,2000.14,2000.12,2000.11,2000.1,2000.1,2000.09,2000.09,2000.08,2000.08,2000.08,2000.07,2000.07,2000.07,2000.07,2000.08,2000.08,2000.08,2000.08,2000.08,2000.09,2000.09,2000.09,2000.1,2000.1,2000.1,2000.11,2000.11,2000.12,2000.12,2000.12,2000.13,2000.13,2000.13,2000.13,2000.13,2000.13,2000.13,2000.13,2000.13,2000.12,2000.12,2000.12,2000.11,2000.11,2000.11,2000.1,2000.1,2000.1,2000.1,2000.1,2000.1,2000.1,2000.1,2000.1,2000.11,2000.12,2000.12,2000.13,2000.14,2000.14,2000.14,2000.13,2000.12,2000.11,2000.1,2000.09,2000.08,2000.07,2000.07,2000.06,2000.06,2000.06,2000.05,2000.05,2000.05,2000.04,2000.04,2000.04,2000.04,2000.03,2000.03,2000.03,2000.03,2000.03,2000.02,2000.02,2000.02,2000.02,2000.02,2000.02,2000.02,2000.01,2000.01,2000.01,2000.01,2000.01,2000.01,2000.01
2000,2000,2000,2000,2000,2000,2000,2000,2000,2000,2000,2000,2000,2000,2000.01,2000.01,2000.01,2000.01,2000.01,2000.01,2000.01,2000.02,2000.02,2000.03,2000.04,2000.06,2000.09,2000.14,2000.22,2000.41,2000.87,2000.7,1999.45,1998.65,1998.21,1998.1,1998.3,1998.85,1999.77,2001.19,2000.68,2000.34,2000.19,2000.12,2000.08,2000.05,2000.04,2000.03,2000.02,2000.02,2000.01,2000.01,2000.01,2000.01,2000.01,2000.01,2000,2000,2000,2000,2000,2000,2000,2000,2000,2000,2000,2000,2000,2000,2000,2000,2000,2000,2000,2000,2000,2000,2000,2000,2000,2000,2000,2000,2000,2000,2000,2000,2000,2000,2000,2000,2000,2000,2000,2000,2000,2000,2000,2000,2000,2000,2000,2000,2000,2000,2000,2000,2000,2000,2000,2000,2000,2000,2000,2000,2000,2000,2000,2000,2000,2000,2000,2000,2000,2000,2000.01,2000.01,2000.01,2000.01,2000.01,2000.01,2000.01,2000.01,2000.01,2000.01,2000.01,2000.01,2000.02,2000.02,2000.02,2000.03,2000.03,2000.05,2000.06,2000.09,2000.13,2000.21,2000.37,2000.76,2000.94,1999.74,1999.01,1998.66,1998.66,1999,1999.72,2000.9,2000.78,2000.38,2000.22,2000.14,2000.09,2000.07,2000.05,2000.04,2000.03,2000.03,2000.03,2000.02,2000.02,2000.02,2000.02,2000.02,2000.02,2000.02,2000.02,2000.02,2000.02,2000.01,2000.01,2000.01,2000.01,2000.01,2000.01,2000.01,2000.01,2000.01,2000.01,2000.01,2000.01,2000.01,2000.01,2000.01,2000.01,2000.01,2000.01,2000.01,2000.01,2000.01,2000.01,2000.01,2000.01,2000.01,2000.01,2000.01,2000.01,2000.01,2000.01,2000,2000,2000,2000,2000,2000,2000,2000,2000,2000.01,2000.01,2000.01,2000.01,2000.01,2000.01,2000.01,2000.01,2000.01,2000.01,2000.01,2000.01,2000.01,2000.01,2000.01,2000,2000,2000.01,2000.01,2000.01,2000.01,2000.01,2000.01,2000.01,2000.01,2000.01,2000.01,2000.01,2000.01,2000.01,2000.01,2000.01,2000.01,2000.01,2000.01,2000.01,2000.02,2000.02,2000.02,2000.02,2000.02,2000.02,2000.02,2000.03,2000.03,2000.03,2000.03,2000.03,2000.03,2000.04,2000.04,2000.04,2000.05,2000.05,2000.05,2000.06,2000.06,2000.07,2000.08,2000.08,2000.09,2000.1,2000.11,2000.12,2000.14,2000.16,2000.18,2000.2,2000.23,2000.26,2000.3,2000.35,2000.41,2000.48,2000.56,2000.66,2000.79,2000.94,2001.12,2001.33,2001.57,2001.85,2002.16,2002.48,2002.79,2003.06,2003.25,2003.32,2003.26,2003.07,2002.81,2002.5,2002.17,2001.86,2001.58,2001.34,2001.12,2000.94,2000.79,2000.67,2000.57,2000.48,2000.41,2000.35,2000.3,2000.26,2000.23,2000.2,2000.18,2000.16,2000.14,2000.13,2000.12,2000.11,2000.1,2000.09,2000.09,2000.08,2000.08,2000.08,2000.07,2000.07,2000.07,2000.07,2000.07,2000.07,2000.07,2000.07,2000.08,2000.08,2000.08,2000.08,2000.08,2000.09,2000.09,2000.09,2000.1,2000.1,2000.1,2000.11,2000.11,2000.11,2000.12,2000.12,2000.12,2000.12,2000.12,2000.12,2000.12,2000.12,2000.12,2000.12,2000.12,2000.11,2000.11,2000.11,2000.1,2000.1,2000.1,2000.09,2000.09,2000.09,2000.09,2000.09,2000.09,2000.1,2000.1,2000.1,2000.11,2000.11,2000.11,2000.11,2000.1,2000.1,2000.09,2000.08,2000.08,2000.07,2000.06,2000.06,2000.06,2000.05,2000.05,2000.05,2000.04,2000.04,2000.04,2000.04,2000.04,2000.03,2000.03,2000.03,2000.03,2000.03,2000.02,2000.02,2000.02,2000.02,2000.02,2000.02,2000.02,2000.02,2000.01,2000.01,2000.01,2000.01,2000.01,2000.01,2000.01
2000,2000,2000,2000,2000,2000,2000,2000,2000,2000,2000,2000,2000,2000,2000.01,2000.01,2000.01,2000.01,2000.01,2000.01,2000.02,2000.02,2000.02,2000.03,2000.04,2000.06,2000.09,2000.14,2000.23,2000.43,2000.96,2000.51,1999.28,1998.48,1998.05,1997.94,1998.15,1998.68,1999.59,2000.99,2000.73,2000.35,2000.2,2000.12,2000.08,2000.06,2000.04,2000.03,2000.02,2000.02,2000.01,2000.01,2000.01,2000.01,2000.01,2000.01,2000,2000,2000,2000,2000,2000,2000,2000,2000,2000,2000,2000,2000,2000,2000,2000,2000,2000,2000,2000,2000,2000,2000,2000,2000,2000,2000,2000,2000,2000,2000,2000,2000,2000,2000,2000,2000,2000,2000,2000,2000,2000,2000,2000,2000,2000,2000,2000,2000,2000,2000,2000,2000,2000,2000,2000,2000,2000,2000,2000,2000,2000,2000,2000,2000,2000.01,2000.01,2000.01,2000,2000,2000.01,2000.01,2000.01,2000.01,2000.01,2000.01,2000.01,2000.01,2000.01,2000.01,2000.01,2000.01,2000.02,2000.02,2000.02,2000.03,2000.03,2000.04,2000.06,2000.08,2000.11,2000.18,2000.29,2000.52,2001.05,2000.68,1999.89,1999.51,1999.5,1999.87,2000.66,2001.08,2000.53,2000.3,2000.18,2000.12,2000.08,2000.06,2000.05,2000.04,2000.03,2000.03,2000.03,2000.02,2000.02,2000.02,2000.02,2000.02,2000.02,2000.02,2000.02,2000.02,2000.02,2000.02,2000.02,2000.01,2000.01,2000.01,2000.01,2000.01,2000.01,2000.01,2000.01,2000.01,2000.01,2000.01,2000.01,2000.01,2000.01,2000.01,2000.01,2000.01,2000.01,2000.01,2000.01,2000.01,2000.01,2000.01,2000.01,2000.01,2000.01,2000.01,2000.01,2000.01,2000,2000,2000,2000,2000,2000,2000,2000,2000.01,2000.01,2000.01,2000.01,2000.01,2000.01,2000.01,2000.01,2000.01,2000.01,2000.01,2000.01,2000.01,2000.01,2000.01,2000.01,2000,2000.01,2000.01,2000.01,2000.01,2000.01,2000.01,2000.01,2000.01,2000.01,2000.01,2000.01,2000.01,2000.01,2000.01,2000.01,2000.01,2000.01,2000.01,2000.01,2000.02,2000.02,2000.02,2000.02,2000.02,2000.02,2000.02,2000.03,2000.03,2000.03,2000.03,2000.03,2000.03,2000.04,2000.04,2000.04,2000.05,2000.05,2000.05,2000.06,2000.06,2000.07,2000.07,2000.08,2000.09,2000.1,2000.11,2000.12,2000.13,2000.15,2000.16,2000.19,2000.21,2000.24,2000.27,2000.31,2000.36,2000.42,2000.49,2000.57,2000.66,2000.77,2000.9,2001.05,2001.21,2001.39,2001.58,2001.77,2001.94,2002.08,2002.17,2002.21,2002.18,2002.09,2001.95,2001.78,2001.59,2001.4,2001.22,2001.05,2000.91,2000.78,2000.66,2000.57,2000.49,2000.42,2000.36,2000.32,2000.28,2000.24,2000.21,2000.19,2000.17,2000.15,2000.13,2000.12,2000.11,2000.1,2000.1,2000.09,2000.08,2000.08,2000.08,2000.07,2000.07,2000.07,2000.07,2000.07,2000.07,2000.07,2000.07,2000.07,2000.07,2000.07,2000.07,2000.08,2000.08,2000.08,2000.08,2000.09,2000.09,2000.09,2000.1,2000.1,2000.1,2000.1,2000.11,2000.11,2000.11,2000.11,2000.12,2000.12,2000.12,2000.12,2000.12,2000.12,2000.12,2000.12,2000.11,2000.11,2000.11,2000.1,2000.1,2000.09,2000.09,2000.09,2000.09,2000.09,2000.09,2000.09,2000.09,2000.09,2000.09,2000.09,2000.09,2000.09,2000.08,2000.08,2000.08,2000.07,2000.07,2000.06,2000.06,2000.05,2000.05,2000.05,2000.05,2000.04,2000.04,2000.04,2000.04,2000.03,2000.03,2000.03,2000.03,2000.03,2000.03,2000.02,2000.02,2000.02,2000.02,2000.02,2000.02,2000.02,2000.02,2000.01,2000.01,2000.01,2000.01,2000.01,2000.01,2000.01,2000.01
2000,2000,2000,2000,2000,2000,2000,2000,2000,2000,2000,2000,2000,2000,2000.01,2000.01,2000.01,2000.01,2000.01,2000.01,2000.01,2000.02,2000.02,2000.03,2000.04,2000.06,2000.09,2000.14,2000.22,2000.41,2000.87,2000.71,1999.45,1998.65,1998.21,1998.1,1998.31,1998.85,1999.78,2001.2,2000.67,2000.34,2000.19,2000.12,2000.08,2000.05,2000.04,2000.03,2000.02,2000.02,2000.01,2000.01,2000.01,2000.01,2000.01,2000.01,2000,2000,2000,2000,2000,2000,2000,2000,2000,2000,2000,2000,2000,2000,2000,2000,2000,2000,2000,2000,2000,2000,2000,2000,2000,2000,2000,2000,2000,2000,2000,2000,2000,2000,2000,2000,2000,2000,2000,2000,2000,2000,2000,2000,2000,2000,2000,2000,2000,2000,2000,2000,2000,2000,2000,2000,2000,2000,2000,2000,2000,2000,2000,2000,2000.01,2000.01,2000.01,2000.01,2000.01,2000.01,2000.01,2000.01,2000.01,2000.01,2000.01,2000.01,2000.01,2000.01,2000.01,2000.01,2000.01,2000.01,2000.02,2000.02,2000.02,2000.03,2000.03,2000.04,2000.05,2000.07,2000.1,2000.14,2000.22,2000.34,2000.57,2000.97,2001.27,2000.84,2000.83,2001.25,2000.99,2000.58,2000.35,2000.22,2000.15,2000.1,2000.08,2000.06,2000.05,2000.04,2000.03,2000.03,2000.03,2000.03,2000.02,2000.02,2000.02,2000.02,2000.02,2000.02,2000.02,2000.02,2000.02,2000.02,2000.02,2000.02,2000.02,2000.02,2000.01,2000.01,2000.01,2000.01,2000.01,2000.01,2000.01,2000.01,2000.01,2000.01,2000.01,2000.01,2000.01,2000.01,2000.01,2000.01,2000.01,2000.01,2000.01,2000.01,2000.01,2000.01,2000.01,2000.01,2000.01,2000.01,2000.01,2000,2000,2000,2000,2000,2000,2000,2000.01,2000.01,2000.01,2000.01,2000.01,2000.01,2000.01,2000.01,2000.01,2000.01,2000.01,2000.01,2000.01,2000.01,2000.01,2000.01,2000.01,2000.01,2000.01,2000.01,2000.01,2000.01,2000.01,2000.01,2000.01,2000.01,2000.01,2000.01,2000.01,2000.01,2000.01,2000.01,2000.01,2000.01,2000.01,2000.01,2000.02,2000.02,2000.02,2000.02,2000.02,2000.02,2000.02,2000.03,2000.03,2000.03,2000.03,2000.03,2000.04,2000.04,2000.04,2000.04,2000.05,2000.05,2000.05,2000.06,2000.06,2000.06,2000.07,2000.08,2000.08,2000.09,2000.1,2000.11,2000.12,2000.14,2000.15,2000.17,2000.19,2000.22,2000.25,2000.28,2000.32,2000.37,2000.42,2000.48,2000.56,2000.64,2000.73,2000.84,2000.95,2001.07,2001.19,2001.31,2001.41,2001.5,2001.55,2001.57,2001.55,2001.5,2001.42,2001.31,2001.2,2001.07,2000.96,2000.84,2000.74,2000.64,2000.56,2000.49,2000.42,2000.37,2000.32,2000.28,2000.25,2000.22,2000.19,2000.17,2000.15,2000.14,2000.13,2000.11,2000.11,2000.1,2000.09,2000.08,2000.08,2000.08,2000.07,2000.07,2000.07,2000.07,2000.06,2000.06,2000.06,2000.06,2000.06,2000.07,2000.07,2000.07,2000.07,2000.07,2000.07,2000.07,2000.08,2000.08,2000.08,2000.09,2000.09,2000.09,2000.09,2000.1,2000.1,2000.1,2000.11,2000.11,2000.11,2000.12,2000.12,2000.12,2000.12,2000.13,2000.12,2000.12,2000.12,2000.12,2000.11,2000.11,2000.1,2000.1,2000.09,2000.09,2000.08,2000.08,2000.08,2000.08,2000.08,2000.08,2000.08,2000.08,2000.08,2000.07,2000.07,2000.07,2000.07,2000.06,2000.06,2000.05,2000.05,2000.05,2000.05,2000.04,2000.04,2000.04,2000.04,2000.03,2000.03,2000.03,2000.03,2000.03,2000.03,2000.03,2000.02,2000.02,2000.02,2000.02,2000.02,2000.02,2000.02,2000.02,2000.01,2000.01,2000.01,2000.01,2000.01,2000.01,2000.01,2000.01,2000.01
2000,2000,2000,2000,2000,2000,2000,2000,2000,2000,2000,2000,2000,2000,2000.01,2000.01,2000.01,2000.01,2000.01,2000.01,2000.01,2000.02,2000.02,2000.03,2000.04,2000.06,2000.08,2000.12,2000.2,2000.35,2000.67,2001.32,2000,1999.16,1998.7,1998.59,1998.8,1999.37,2000.34,2001.21,2000.54,2000.29,2000.17,2000.11,2000.07,2000.05,2000.04,2000.03,2000.02,2000.02,2000.01,2000.01,2000.01,2000.01,2000.01,2000.01,2000,2000,2000,2000,2000,2000,2000,2000,2000,2000,2000,2000,2000,2000,2000,2000,2000,2000,2000,2000,2000,2000,2000,2000,2000,2000,2000,2000,2000,2000,2000,2000,2000,2000,2000,2000,2000,2000,2000,2000,2000,2000,2000,2000,2000,2000,2000,2000,2000,2000,2000,2000,2000,2000,2000,2000,2000,2000,2000,2000,2000,2000,2000,2000,2000.01,2000.01,2000.01,2000.01,2000.01,2000.01,2000.01,2000.01,2000.01,2000.01,2000.01,2000.01,2000.01,2000.01,2000.01,2000.01,2000.01,2000.01,2000.02,2000.02,2000.02,2000.02,2000.03,2000.04,2000.05,2000.06,2000.08,2000.11,2000.16,2000.23,2000.33,2000.47,2000.63,2000.75,2000.75,2000.63,2000.48,2000.34,2000.23,2000.16,2000.12,2000.09,2000.07,2000.05,2000.04,2000.04,2000.03,2000.03,2000.03,2000.03,2000.02,2000.02,2000.02,2000.02,2000.02,2000.02,2000.02,2000.02,2000.02,2000.02,2000.02,2000.02,2000.02,2000.02,2000.02,2000.02,2000.01,2000.01,2000.01,2000.01,2000.01,2000.01,2000.01,2000.01,2000.01,2000.01,2000.01,2000.01,2000.01,2000.01,2000.01,2000.01,2000.01,2000.01,2000.01,2000.01,2000.01,2000.01,2000.01,2000.01,2000.01,2000.01,2000,2000,2000,2000,2000,2000,2000.01,2000.01,2000.01,2000.01,2000.01,2000.01,2000.01,2000.01,2000.01,2000.01,2000.01,2000.01,2000.01,2000.01,2000.01,2000.01,2000.01,2000.01,2000.01,2000.01,2000.01,2000.01,2000.01,2000.01,2000.01,2000.01,2000.01,2000.01,2000.01,2000.01,2000.01,2000.01,2000.01,2000.01,2000.01,2000.01,2000.02,2000.02,2000.02,2000.02,2000.02,2000.02,2000.02,2000.03,2000.03,2000.03,2000.03,2000.03,2000.04,2000.04,2000.04,2000.04,2000.05,2000.05,2000.05,2000.05,2000.06,2000.06,2000.07,2000.07,2000.08,2000.09,2000.1,2000.1,2000.12,2000.13,2000.14,2000.16,2000.18,2000.2,2000.22,2000.25,2000.28,2000.32,2000.37,2000.42,2000.47,2000.54,2000.6,2000.68,2000.76,2000.84,2000.92,2001,2001.06,2001.12,2001.15,2001.16,2001.15,2001.12,2001.07,2001,2000.92,2000.84,2000.76,2000.68,2000.61,2000.54,2000.47,2000.42,2000.37,2000.32,2000.29,2000.25,2000.22,2000.2,2000.18,2000.16,2000.14,2000.13,2000.12,2000.11,2000.1,2000.09,2000.09,2000.08,2000.08,2000.07,2000.07,2000.07,2000.06,2000.06,2000.06,2000.06,2000.06,2000.06,2000.06,2000.06,2000.06,2000.06,2000.06,2000.07,2000.07,2000.07,2000.07,2000.07,2000.08,2000.08,2000.08,2000.09,2000.09,2000.09,2000.1,2000.1,2000.11,2000.11,2000.12,2000.12,2000.13,2000.13,2000.14,2000.14,2000.14,2000.14,2000.13,2000.13,2000.12,2000.11,2000.11,2000.1,2000.09,2000.09,2000.08,2000.08,2000.08,2000.07,2000.07,2000.07,2000.07,2000.07,2000.07,2000.06,2000.06,2000.06,2000.06,2000.05,2000.05,2000.05,2000.05,2000.04,2000.04,2000.04,2000.04,2000.03,2000.03,2000.03,2000.03,2000.03,2000.03,2000.03,2000.02,2000.02,2000.02,2000.02,2000.02,2000.02,2000.02,2000.02,2000.02,2000.01,2000.01,2000.01,2000.01,2000.01,2000.01,2000.01,2000.01,2000.01,2000.01
2000,2000,2000,2000,2000,2000,2000,2000,2000,2000,2000,2000,2000,2000,2000,2000.01,2000.01,2000.01,2000.01,2000.01,2000.01,2000.02,2000.02,2000.03,2000.04,2000.05,2000.07,2000.11,2000.17,2000.27,2000.48,2000.93,2000.97,2000.06,1999.56,1999.44,1999.67,2000.28,2001.35,2000.75,2000.4,2000.23,2000.15,2000.1,2000.07,2000.05,2000.04,2000.03,2000.02,2000.02,2000.01,2000.01,2000.01,2000.01,2000.01,2000.01,2000,2000,2000,2000,2000,2000,2000,2000,2000,2000,2000,2000,2000,2000,2000,2000,2000,2000,2000,2000,2000,2000,2000,2000,2000,2000,2000,2000,2000,2000,2000,2000,2000,2000,2000,2000,2000,2000,2000,2000,2000,2000,2000,2000,2000,2000,2000,2000,2000,2000,2000,2000,2000,2000,2000,2000,2000,2000,2000,2000,2000,2000,2000,2000,2000.01,2000.01,2000.01,2000.01,2000.01,2000.01,2000.01,2000.01,2000.01,2000.01,2000.01,2000.01,2000.01,2000.01,2000.01,2000.01,2000.01,2000.01,2000.01,2000.02,2000.02,2000.02,2000.03,2000.03,2000.04,2000.05,2000.07,2000.09,2000.12,2000.15,2000.2,2000.26,2000.32,2000.36,2000.36,2000.32,2000.27,2000.21,2000.16,2000.12,2000.09,2000.07,2000.06,2000.05,2000.04,2000.04,2000.03,2000.03,2000.03,2000.03,2000.03,2000.02,2000.02,2000.02,2000.02,2000.02,2000.02,2000.02,2000.02,2000.02,2000.02,2000.02,2000.02,2000.02,2000.02,2000.02,2000.02,2000.02,2000.01,2000.01,2000.01,2000.01,2000.01,2000.01,2000.01,2000.01,2000.01,2000.01,2000.01,2000.01,2000.01,2000.01,2000.01,2000.01,2000.01,2000.01,2000.01,2000.01,2000.01,2000.01,2000.01,2000.01,2000.01,2000,2000,2000,2000,2000,2000.01,2000.01,2000.01,2000.01,2000.01,2000.01,2000.01,2000.01,2000.01,2000.01,2000.01,2000.01,2000.01,2000.01,2000.01,2000.01,2000.01,2000.01,2000.01,2000.01,2000.01,2000.01,2000.01,2000.01,2000.01,2000.01,2000.01,2000.01,2000.01,2000.01,2000.01,2000.01,2000.01,2000.01,2000.01,2000.02,2000.02,2000.02,2000.02,2000.02,2000.02,2000.02,2000.03,2000.03,2000.03,2000.03,2000.03,2000.03,2000.04,2000.04,2000.04,2000.04,2000.05,2000.05,2000.05,2000.05,2000.06,2000.06,2000.07,2000.07,2000.08,2000.08,2000.09,2000.1,2000.11,2000.12,2000.13,2000.15,2000.16,2000.18,2000.2,2000.22,2000.25,2000.28,2000.32,2000.36,2000.4,2000.45,2000.5,2000.56,2000.61,2000.67,2000.73,2000.78,2000.82,2000.86,2000.88,2000.89,2000.88,2000.86,2000.82,2000.78,2000.73,2000.67,2000.62,2000.56,2000.5,2000.45,2000.4,2000.36,2000.32,2000.29,2000.25,2000.23,2000.2,2000.18,2000.16,2000.15,2000.13,2000.12,2000.11,2000.1,2000.09,2000.09,2000.08,2000.08,2000.07,2000.07,2000.07,2000.06,2000.06,2000.06,2000.06,2000.06,2000.06,2000.06,2000.06,2000.06,2000.06,2000.06,2000.06,2000.06,2000.06,2000.07,2000.07,2000.07,2000.07,2000.08,2000.08,2000.08,2000.09,2000.09,2000.1,2000.1,2000.11,2000.12,2000.12,2000.13,2000.14,2000.15,2000.16,2000.16,2000.16,2000.16,2000.16,2000.15,2000.14,2000.13,2000.12,2000.11,2000.1,2000.09,2000.08,2000.08,2000.08,2000.07,2000.07,2000.07,2000.06,2000.06,2000.06,2000.06,2000.06,2000.05,2000.05,2000.05,2000.05,2000.04,2000.04,2000.04,2000.04,2000.03,2000.03,2000.03,2000.03,2000.03,2000.03,2000.03,2000.03,2000.02,2000.02,2000.02,2000.02,2000.02,2000.02,2000.02,2000.02,2000.02,2000.01,2000.01,2000.01,2000.01,2000.01,2000.01,2000.01,2000.01,2000.01,2000.01,2000.01
2000,2000,2000,2000,2000,2000,2000,2000,2000,2000,2000,2000,2000,2000,2000,2000.01,2000.01,2000.01,2000.01,2000.01,2000.01,2000.02,2000.02,2000.03,2000.04,2000.05,2000.06,2000.09,2000.13,2000.2,2000.32,2000.53,2000.9,2001.46,2000.9,2000.75,2001.02,2001.3,2000.77,2000.46,2000.28,2000.18,2000.12,2000.08,2000.06,2000.04,2000.03,2000.02,2000.02,2000.02,2000.01,2000.01,2000.01,2000.01,2000.01,2000.01,2000,2000,2000,2000,2000,2000,2000,2000,2000,2000,2000,2000,2000,2000,2000,2000,2000,2000,2000,2000,2000,2000,2000,2000,2000,2000,2000,2000,2000,2000,2000,2000,2000,2000,2000,2000,2000,2000,2000,2000,2000,2000,2000,2000,2000,2000,2000,2000,2000,2000,2000,2000,2000,2000,2000,2000,2000,2000,2000,2000,2000,2000,2000,2000,2000,2000.01,2000.01,2000.01,2000.01,2000.01,2000.01,2000.01,2000.01,2000.01,2000.01,2000.01,2000.01,2000.01,2000.01,2000.01,2000.01,2000.01,2000.01,2000.02,2000.02,2000.02,2000.03,2000.03,2000.04,2000.04,2000.06,2000.07,2000.09,2000.11,2000.13,2000.16,2000.19,2000.2,2000.2,2000.19,2000.17,2000.14,2000.11,2000.09,2000.08,2000.06,2000.05,2000.05,2000.04,2000.04,2000.03,2000.03,2000.03,2000.03,2000.03,2000.03,2000.03,2000.02,2000.02,2000.02,2000.02,2000.02,2000.02,2000.02,2000.02,2000.02,2000.02,2000.02,2000.02,2000.02,2000.02,2000.02,2000.02,2000.01,2000.01,2000.01,2000.01,2000.01,2000.01,2000.01,2000.01,2000.01,2000.01,2000.01,2000.01,2000.01,2000.01,2000.01,2000.01,2000.01,2000.01,2000.01,2000.01,2000.01,2000.01,2000.01,2000.01,2000.01,2000,2000,2000,2000,2000,2000.01,2000.01,2000.01,2000.01,2000.01,2000.01,2000.01,2000.01,2000.01,2000.01,2000.01,2000.01,2000.01,2000.01,2000.01,2000.01,2000.01,2000.01,2000.01,2000.01,2000.01,2000.01,2000.01,2000.01,2000.01,2000.01,2000.01,2000.01,2000.01,2000.01,2000.01,2000.01,2000.01,2000.01,2000.02,2000.02,2000.02,2000.02,2000.02,2000.02,2000.02,2000.03,2000.03,2000.03,2000.03,2000.03,2000.04,2000.04,2000.04,2000.04,2000.04,2000.05,2000.05,2000.05,2000.05,2000.06,2000.06,2000.06,2000.07,2000.07,2000.08,2000.09,2000.09,2000.1,2000.11,2000.12,2000.13,2000.15,2000.16,2000.18,2000.2,2000.22,2000.25,2000.28,2000.31,2000.34,2000.38,2000.42,2000.46,2000.5,2000.54,2000.58,2000.62,2000.65,2000.67,2000.69,2000.69,2000.69,2000.67,2000.65,2000.62,2000.58,2000.54,2000.5,2000.46,2000.42,2000.38,2000.34,2000.31,2000.28,2000.25,2000.22,2000.2,2000.18,2000.16,2000.15,2000.13,2000.12,2000.11,2000.1,2000.1,2000.09,2000.08,2000.08,2000.07,2000.07,2000.06,2000.06,2000.06,2000.06,2000.06,2000.06,2000.05,2000.05,2000.05,2000.05,2000.06,2000.06,2000.06,2000.06,2000.06,2000.06,2000.06,2000.06,2000.07,2000.07,2000.07,2000.08,2000.08,2000.08,2000.09,2000.1,2000.1,2000.11,2000.13,2000.14,2000.15,2000.17,2000.18,2000.19,2000.2,2000.21,2000.2,2000.19,2000.18,2000.17,2000.15,2000.13,2000.12,2000.11,2000.1,2000.09,2000.08,2000.07,2000.07,2000.07,2000.06,2000.06,2000.06,2000.06,2000.05,2000.05,2000.05,2000.05,2000.04,2000.04,2000.04,2000.04,2000.03,2000.03,2000.03,2000.03,2000.03,2000.03,2000.03,2000.03,2000.02,2000.02,2000.02,2000.02,2000.02,2000.02,2000.02,2000.02,2000.02,2000.02,2000.01,2000.01,2000.01,2000.01,2000.01,2000.01,2000.01,2000.01,2000.01,2000.01,2000.01,2000.01
2000,2000,2000,2000,2000,2000,2000,2000,2000,2000,2000,2000,2000,2000,2000,2000.01,2000.01,2000.01,2000.01,2000.01,2000.01,2000.02,2000.02,2000.02,2000.03,2000.04,2000.05,2000.07,2000.1,2000.15,2000.22,2000.32,2000.46,2000.63,2000.78,2000.83,2000.74,2000.58,2000.41,2000.28,2000.19,2000.13,2000.09,2000.07,2000.05,2000.04,2000.03,2000.02,2000.02,2000.01,2000.01,2000.01,2000.01,2000.01,2000.01,2000.01,2000,2000,2000,2000,2000,2000,2000,2000,2000,2000,2000,2000,2000,2000,2000,2000,2000,2000,2000,2000,2000,2000,2000,2000,2000,2000,2000,2000,2000,2000,2000,2000,2000,2000,2000,2000,2000,2000,2000,2000,2000,2000,2000,2000,2000,2000,2000,2000,2000,2000,2000,2000,2000,2000,2000,2000,2000,2000,2000,2000,2000,2000,2000,2000,2000,2000.01,2000.01,2000.01,2000.01,2000.01,2000.01,2000.01,2000.01,2000.01,2000.01,2000.01,2000.01,2000.01,2000.01,2000.01,2000.01,2000.01,2000.01,2000.02,2000.02,2000.02,2000.02,2000.03,2000.03,2000.04,2000.05,2000.06,2000.07,2000.08,2000.09,2000.11,2000.12,2000.13,2000.13,2000.12,2000.11,2000.1,2000.09,2000.07,2000.06,2000.05,2000.05,2000.04,2000.04,2000.04,2000.03,2000.03,2000.03,2000.03,2000.03,2000.03,2000.03,2000.03,2000.03,2000.03,2000.02,2000.02,2000.02,2000.02,2000.02,2000.02,2000.02,2000.02,2000.02,2000.02,2000.02,2000.02,2000.02,2000.02,2000.02,2000.01,2000.01,2000.01,2000.01,2000.01,2000.01,2000.01,2000.01,2000.01,2000.01,2000.01,2000.01,2000.01,2000.01,2000.01,2000.01,2000.01,2000.01,2000.01,2000.01,2000.01,2000.01,2000.01,2000,2000,2000,2000,2000,2000.01,2000.01,2000.01,2000.01,2000.01,2000.01,2000.01,2000.01,2000.01,2000.01,2000.01,2000.01,2000.01,2000.01,2000.01,2000.01,2000.01,2000.01,2000.01,2000.01,2000.01,2000.01,2000.01,2000.01,2000.01,2000.01,2000.01,2000.01,2000.01,2000.01,2000.01,2000.01,2000.01,2000.01,2000.02,2000.02,2000.02,2000.02,2000.02,2000.02,2000.02,2000.03,2000.03,2000.03,2000.03,2000.04,2000.04,2000.04,2000.04,2000.04,2000.05,2000.05,2000.05,2000.05,2000.05,2000.06,2000.06,2000.06,2000.07,2000.07,2000.08,2000.08,2000.09,2000.1,2000.1,2000.11,2000.12,2000.14,2000.15,2000.16,2000.18,2000.2,2000.22,2000.24,2000.27,2000.29,2000.32,2000.35,2000.38,2000.42,2000.45,2000.47,2000.5,2000.52,2000.54,2000.55,2000.55,2000.55,2000.54,2000.52,2000.5,2000.47,2000.45,2000.42,2000.38,2000.35,2000.32,2000.3,2000.27,2000.24,2000.22,2000.2,2000.18,2000.16,2000.15,2000.14,2000.12,2000.11,2000.1,2000.1,2000.09,2000.08,2000.08,2000.07,2000.07,2000.06,2000.06,2000.06,2000.06,2000.06,2000.05,2000.05,2000.05,2000.05,2000.05,2000.05,2000.05,2000.05,2000.05,2000.05,2000.06,2000.06,2000.06,2000.06,2000.06,2000.07,2000.07,2000.07,2000.08,2000.08,2000.09,2000.1,2000.11,2000.12,2000.14,2000.16,2000.18,2000.21,2000.23,2000.25,2000.27,2000.28,2000.27,2000.26,2000.24,2000.21,2000.19,2000.16,2000.14,2000.12,2000.11,2000.09,2000.08,2000.08,2000.07,2000.06,2000.06,2000.06,2000.05,2000.05,2000.05,2000.05,2000.05,2000.04,2000.04,2000.04,2000.03,2000.03,2000.03,2000.03,2000.03,2000.03,2000.03,2000.03,2000.02,2000.02,2000.02,2000.02,2000.02,2000.02,2000.02,2000.02,2000.02,2000.02,2000.01,2000.01,2000.01,2000.01,2000.01,2000.01,2000.01,2000.01,2000.01,2000.01,2000.01,2000.01,2000.01,2000.01
2000,2000,2000,2000,2000,2000,2000,2000,2000,2000,2000,2000,2000,2000,2000,2000.01,2000.01,2000.01,2000.01,2000.01,2000.01,2000.01,2000.02,2000.02,2000.03,2000.04,2000.05,2000.06,2000.08,2000.11,2000.15,2000.2,2000.26,2000.32,2000.37,2000.39,2000.36,2000.31,2000.24,2000.18,2000.14,2000.1,2000.07,2000.06,2000.04,2000.03,2000.03,2000.02,2000.02,2000.01,2000.01,2000.01,2000.01,2000.01,2000.01,2000.01,2000,2000,2000,2000,2000,2000,2000,2000,2000,2000,2000,2000,2000,2000,2000,2000,2000,2000,2000,2000,2000,2000,2000,2000,2000,2000,2000,2000,2000,2000,2000,2000,2000,2000,2000,2000,2000,2000,2000,2000,2000,2000,2000,2000,2000,2000,2000,2000,2000,2000,2000,2000,2000,2000,2000,2000,2000,2000,2000,2000,2000,2000,2000,2000.01,2000.01,2000.01,2000.01,2000.01,2000.01,2000.01,2000.01,2000.01,2000.01,2000.01,2000.01,2000.01,2000.01,2000.01,2000.01,2000.01,2000.01,2000.01,2000.01,2000.02,2000.02,2000.02,2000.02,2000.03,2000.03,2000.03,2000.04,2000.05,2000.05,2000.06,2000.07,2000.08,2000.08,2000.09,2000.09,2000.09,2000.08,2000.07,2000.07,2000.06,2000.05,2000.05,2000.04,2000.04,2000.04,2000.04,2000.03,2000.03,2000.03,2000.03,2000.03,2000.03,2000.03,2000.03,2000.03,2000.03,2000.03,2000.03,2000.03,2000.03,2000.02,2000.02,2000.02,2000.02,2000.02,2000.02,2000.02,2000.02,2000.02,2000.02,2000.02,2000.02,2000.02,2000.01,2000.01,2000.01,2000.01,2000.01,2000.01,2000.01,2000.01,2000.01,2000.01,2000.01,2000.01,2000.01,2000.01,2000.01,2000.01,2000.01,2000.01,2000.01,2000.01,2000.01,2000.01,2000,2000,2000,2000,2000.01,2000.01,2000.01,2000.01,2000.01,2000.01,2000.01,2000.01,2000.01,2000.01,2000.01,2000.01,2000.01,2000.01,2000.01,2000.01,2000.01,2000.01,2000.01,2000.01,2000.01,2000.01,2000.01,2000.01,2000.01,2000.01,2000.01,2000.01,2000.01,2000.01,2000.01,2000.01,2000.01,2000.01,2000.02,2000.02,2000.02,2000.02,2000.02,2000.02,2000.03,2000.03,2000.03,2000.03,2000.04,2000.04,2000.04,2000.04,2000.05,2000.05,2000.05,2000.05,2000.05,2000.05,2000.06,2000.06,2000.06,2000.06,2000.07,2000.07,2000.07,2000.08,2000.08,2000.09,2000.1,2000.1,2000.11,2000.12,2000.14,2000.15,2000.16,2000.18,2000.19,2000.21,2000.23,2000.25,2000.28,2000.3,2000.32,2000.35,2000.37,2000.39,2000.41,2000.42,2000.44,2000.44,2000.45,2000.44,2000.44,2000.43,2000.41,2000.39,2000.37,2000.35,2000.32,2000.3,2000.28,2000.26,2000.23,2000.21,2000.2,2000.18,2000.16,2000.15,2000.14,2000.12,2000.11,2000.1,2000.1,2000.09,2000.08,2000.08,2000.07,2000.07,2000.06,2000.06,2000.06,2000.06,2000.05,2000.05,2000.05,2000.05,2000.05,2000.05,2000.05,2000.05,2000.05,2000.05,2000.05,2000.05,2000.05,2000.05,2000.06,2000.06,2000.06,2000.06,2000.07,2000.07,2000.08,2000.08,2000.09,2000.1,2000.12,2000.14,2000.16,2000.19,2000.23,2000.27,2000.32,2000.36,2000.4,2000.41,2000.41,2000.38,2000.34,2000.29,2000.24,2000.2,2000.17,2000.14,2000.12,2000.1,2000.09,2000.08,2000.07,2000.06,2000.06,2000.06,2000.05,2000.05,2000.05,2000.04,2000.04,2000.04,2000.04,2000.03,2000.03,2000.03,2000.03,2000.03,2000.03,2000.03,2000.03,2000.02,2000.02,2000.02,2000.02,2000.02,2000.02,2000.02,2000.02,2000.02,2000.02,2000.02,2000.01,2000.01,2000.01,2000.01,2000.01,2000.01,2000.01,2000.01,2000.01,2000.01,2000.01,2000.01,2000.01,2000.01
2000,2000,2000,2000,2000,2000,2000,2000,2000,2000,2000,2000,2000,2000,2000,2000,2000.01,2000.01,2000.01,2000.01,2000.01,2000.01,2000.02,2000.02,2000.02,2000.03,2000.04,2000.05,2000.06,2000.08,2000.1,2000.13,2000.16,2000.19,2000.21,2000.21,2000.2,2000.18,2000.15,2000.12,2000.1,2000.07,2000.06,2000.05,2000.04,2000.03,2000.02,2000.02,2000.01,2000.01,2000.01,2000.01,2000.01,2000.01,2000.01,2000,2000,2000,2000,2000,2000,2000,2000,2000,2000,2000,2000,2000,2000,2000,2000,2000,2000,2000,2000,2000,2000,2000,2000,2000,2000,2000,2000,2000,2000,2000,2000,2000,2000,2000,2000,2000,2000,2000,2000,2000,2000,2000,2000,2000,2000,2000,2000,2000,2000,2000,2000,2000,2000,2000,2000.01,2000.01,2000.01,2000.01,2000.01,2000.01,2000.01,2000.01,2000.01,2000.01,2000.01,2000.01,2000.01,2000.01,2000.01,2000.01,2000.01,2000.01,2000.01,2000.01,2000.01,2000.01,2000.01,2000.01,2000.01,2000.01,2000.01,2000.01,2000.01,2000.01,2000.02,2000.02,2000.02,2000.02,2000.03,2000.03,2000.03,2000.04,2000.04,2000.05,2000.05,2000.06,2000.06,2000.07,2000.07,2000.07,2000.06,2000.06,2000.06,2000.05,2000.05,2000.04,2000.04,2000.04,2000.04,2000.04,2000.04,2000.03,2000.03,2000.03,2000.03,2000.03,2000.03,2000.03,2000.03,2000.03,2000.03,2000.03,2000.03,2000.03,2000.03,2000.03,2000.03,2000.02,2000.02,2000.02,2000.02,2000.02,2000.02,2000.02,2000.02,2000.02,2000.02,2000.02,2000.01,2000.01,2000.01,2000.01,2000.01,2000.01,2000.01,2000.01,2000.01,2000.01,2000.01,2000.01,2000.01,2000.01,2000.01,2000.01,2000.01,2000.01,2000.01,2000.01,2000.01,2000.01,2000,2000.01,2000,2000.01,2000.01,2000.01,2000.01,2000.01,2000.01,2000.01,2000.01,2000.01,2000.01,2000.01,2000.01,2000.01,2000.01,2000.01,2000.01,2000.01,2000.01,2000.01,2000.01,2000.01,2000.01,2000.01,2000.01,2000.01,2000.01,2000.01,2000.01,2000.01,2000.01,2000.01,2000.01,2000.01,2000.02,2000.02,2000.02,2000.02,2000.02,2000.02,2000.03,2000.03,2000.03,2000.03,2000.04,2000.04,2000.04,2000.05,2000.05,2000.05,2000.05,2000.05,2000.05,2000.06,2000.06,2000.06,2000.06,2000.06,2000.06,2000.06,2000.07,2000.07,2000.07,2000.08,2000.08,2000.09,2000.1,2000.11,2000.11,2000.12,2000.13,2000.15,2000.16,2000.17,2000.19,2000.2,2000.22,2000.24,2000.26,2000.28,2000.29,2000.31,2000.33,2000.34,2000.35,2000.36,2000.36,2000.37,2000.36,2000.36,2000.35,2000.34,2000.33,2000.31,2000.29,2000.28,2000.26,2000.24,2000.22,2000.2,2000.19,2000.17,2000.16,2000.15,2000.13,2000.12,2000.11,2000.1,2000.1,2000.09,2000.08,2000.08,2000.07,2000.07,2000.06,2000.06,2000.06,2000.06,2000.05,2000.05,2000.05,2000.05,2000.05,2000.05,2000.05,2000.05,2000.05,2000.05,2000.05,2000.05,2000.05,2000.05,2000.05,2000.05,2000.06,2000.06,2000.06,2000.07,2000.07,2000.08,2000.08,2000.1,2000.11,2000.13,2000.15,2000.19,2000.24,2000.3,2000.37,2000.47,2000.56,2000.65,2000.69,2000.67,2000.6,2000.51,2000.41,2000.33,2000.26,2000.2,2000.16,2000.13,2000.11,2000.09,2000.08,2000.07,2000.06,2000.06,2000.05,2000.05,2000.05,2000.04,2000.04,2000.04,2000.03,2000.03,2000.03,2000.03,2000.03,2000.03,2000.03,2000.03,2000.02,2000.02,2000.02,2000.02,2000.02,2000.02,2000.02,2000.02,2000.02,2000.02,2000.02,2000.02,2000.01,2000.01,2000.01,2000.01,2000.01,2000.01,2000.01,2000.01,2000.01,2000.01,2000.01,2000.01,2000.01,2000.01,2000.01
2000,2000,2000,2000,2000,2000,2000,2000,2000,2000,2000,2000,2000,2000,2000,2000,2000.01,2000.01,2000.01,2000.01,2000.01,2000.01,2000.01,2000.02,2000.02,2000.03,2000.03,2000.04,2000.05,2000.06,2000.07,2000.09,2000.1,2000.12,2000.13,2000.13,2000.12,2000.11,2000.1,2000.08,2000.07,2000.06,2000.05,2000.04,2000.03,2000.02,2000.02,2000.02,2000.01,2000.01,2000.01,2000.01,2000.01,2000.01,2000.01,2000,2000,2000,2000,2000,2000,2000,2000,2000,2000,2000,2000,2000,2000,2000,2000,2000,2000,2000,2000,2000,2000,2000,2000,2000,2000,2000,2000,2000,2000,2000,2000,2000,2000,2000,2000,2000,2000,2000,2000,2000,2000,2000,2000,2000,2000,2000,2000,2000,2000,2000,2000,2000,2000,2000,2000.01,2000.01,2000.01,2000.01,2000.01,2000.01,2000.01,2000.01,2000.01,2000.01,2000.01,2000.01,2000.01,2000.01,2000.01,2000.01,2000.01,2000.01,2000.01,2000.01,2000.01,2000.01,2000.01,2000.01,2000.01,2000.01,2000.01,2000.01,2000.01,2000.01,2000.02,2000.02,2000.02,2000.02,2000.02,2000.03,2000.03,2000.03,2000.04,2000.04,2000.04,2000.05,2000.05,2000.05,2000.05,2000.05,2000.05,2000.05,2000.05,2000.05,2000.04,2000.04,2000.04,2000.04,2000.04,2000.04,2000.04,2000.04,2000.04,2000.04,2000.03,2000.03,2000.03,2000.03,2000.03,2000.03,2000.03,2000.03,2000.03,2000.03,2000.03,2000.03,2000.03,2000.03,2000.03,2000.03,2000.02,2000.02,2000.02,2000.02,2000.02,2000.02,2000.02,2000.02,2000.02,2000.02,2000.01,2000.01,2000.01,2000.01,2000.01,2000.01,2000.01,2000.01,2000.01,2000.01,2000.01,2000.01,2000.01,2000.01,2000.01,2000.01,2000.01,2000.01,2000.01,2000.01,2000.01,2000.01,2000,2000.01,2000.01,2000.01,2000.01,2000.01,2000.01,2000.01,2000.01,2000.01,2000.01,2000.01,2000.01,2000.01,2000.01,2000.01,2000.01,2000.01,2000.01,2000.01,2000.01,2000.01,2000.01,2000.01,2000.01,2000.01,2000.01,2000.01,2000.01,2000.01,2000.01,2000.01,2000.01,2000.01,2000.02,2000.02,2000.02,2000.02,2000.02,2000.02,2000.03,2000.03,2000.03,2000.04,2000.04,2000.04,2000.05,2000.05,2000.05,2000.06,2000.06,2000.06,2000.06,2000.06,2000.06,2000.06,2000.06,2000.06,2000.06,2000.06,2000.07,2000.07,2000.07,2000.08,2000.08,2000.08,2000.09,2000.1,2000.1,2000.11,2000.12,2000.13,2000.14,2000.15,2000.17,2000.18,2000.19,2000.21,2000.22,2000.23,2000.25,2000.26,2000.27,2000.28,2000.29,2000.3,2000.3,2000.3,2000.3,2000.3,2000.29,2000.28,2000.27,2000.26,2000.25,2000.24,2000.22,2000.21,2000.19,2000.18,2000.17,2000.15,2000.14,2000.13,2000.12,2000.11,2000.1,2000.1,2000.09,2000.08,2000.08,2000.07,2000.07,2000.06,2000.06,2000.06,2000.06,2000.05,2000.05,2000.05,2000.05,2000.05,2000.04,2000.04,2000.04,2000.04,2000.04,2000.04,2000.04,2000.05,2000.05,2000.05,2000.05,2000.05,2000.05,2000.06,2000.06,2000.06,2000.07,2000.08,2000.09,2000.1,2000.12,2000.14,2000.18,2000.23,2000.3,2000.4,2000.55,2000.75,2000.99,2001.22,2001.35,2001.3,2001.1,2000.86,2000.64,2000.47,2000.34,2000.25,2000.19,2000.15,2000.12,2000.1,2000.08,2000.07,2000.06,2000.06,2000.05,2000.05,2000.04,2000.04,2000.04,2000.04,2000.03,2000.03,2000.03,2000.03,2000.03,2000.03,2000.02,2000.02,2000.02,2000.02,2000.02,2000.02,2000.02,2000.02,2000.02,2000.02,2000.02,2000.02,2000.02,2000.01,2000.01,2000.01,2000.01,2000.01,2000.01,2000.01,2000.01,2000.01,2000.01,2000.01,2000.01,2000.01,2000.01,2000.01,2000
2000,2000,2000,2000,2000,2000,2000,2000,2000,2000,2000,2000,2000,2000,2000,2000,2000.01,2000.01,2000.01,2000.01,2000.01,2000.01,2000.01,2000.01,2000.02,2000.02,2000.03,2000.03,2000.04,2000.05,2000.05,2000.06,2000.07,2000.08,2000.08,2000.08,2000.08,2000.08,2000.07,2000.06,2000.05,2000.04,2000.04,2000.03,2000.02,2000.02,2000.02,2000.01,2000.01,2000.01,2000.01,2000.01,2000.01,2000.01,2000,2000,2000,2000,2000,2000,2000,2000,2000,2000,2000,2000,2000,2000,2000,2000,2000,2000,2000,2000,2000,2000,2000,2000,2000,2000,2000,2000,2000,2000,2000,2000,2000,2000,2000,2000,2000,2000,2000,2000,2000,2000,2000,2000,2000,2000,2000,2000,2000,2000,2000,2000,2000,2000,2000,2000.01,2000.01,2000.01,2000.01,2000.01,2000.01,2000.01,2000.01,2000.01,2000.01,2000.01,2000.01,2000.01,2000.01,2000.01,2000.01,2000.01,2000.01,2000.01,2000.01,2000.01,2000.01,2000.01,2000.01,2000.01,2000.01,2000.01,2000.01,2000.01,2000.01,2000.01,2000.02,2000.02,2000.02,2000.02,2000.02,2000.02,2000.03,2000.03,2000.03,2000.04,2000.04,2000.04,2000.04,2000.04,2000.05,2000.05,2000.05,2000.04,2000.04,2000.04,2000.04,2000.04,2000.04,2000.04,2000.04,2000.04,2000.04,2000.04,2000.04,2000.04,2000.04,2000.04,2000.04,2000.04,2000.04,2000.04,2000.04,2000.04,2000.03,2000.03,2000.03,2000.03,2000.03,2000.03,2000.03,2000.03,2000.03,2000.02,2000.02,2000.02,2000.02,2000.02,2000.02,2000.02,2000.02,2000.02,2000.02,2000.01,2000.01,2000.01,2000.01,2000.01,2000.01,2000.01,2000.01,2000.01,2000.01,2000.01,2000.01,2000.01,2000.01,2000.01,2000.01,2000.01,2000.01,2000.01,2000.01,2000.01,2000.01,2000,2000.01,2000.01,2000.01,2000.01,2000.01,2000.01,2000.01,2000.01,2000.01,2000.01,2000.01,2000.01,2000.01,2000.01,2000.01,2000.01,2000.01,2000.01,2000.01,2000.01,2000.01,2000.01,2000.01,2000.01,2000.01,2000.01,2000.01,2000.01,2000.01,2000.01,2000.01,2000.01,2000.02,2000.02,2000.02,2000.02,2000.02,2000.03,2000.03,2000.03,2000.04,2000.04,2000.05,2000.05,2000.06,2000.06,2000.06,2000.07,2000.07,2000.07,2000.07,2000.07,2000.07,2000.07,2000.07,2000.06,2000.06,2000.06,2000.07,2000.07,2000.07,2000.07,2000.08,2000.08,2000.08,2000.09,2000.1,2000.1,2000.11,2000.12,2000.13,2000.14,2000.15,2000.16,2000.17,2000.18,2000.19,2000.2,2000.21,2000.22,2000.23,2000.24,2000.25,2000.25,2000.25,2000.26,2000.25,2000.25,2000.25,2000.24,2000.23,2000.22,2000.21,2000.2,2000.19,2000.18,2000.17,2000.16,2000.15,2000.14,2000.13,2000.12,2000.11,2000.1,2000.09,2000.09,2000.08,2000.08,2000.07,2000.07,2000.06,2000.06,2000.06,2000.05,2000.05,2000.05,2000.05,2000.05,2000.05,2000.04,2000.04,2000.04,2000.04,2000.04,2000.04,2000.04,2000.04,2000.04,2000.05,2000.05,2000.05,2000.05,2000.05,2000.05,2000.06,2000.06,2000.07,2000.08,2000.09,2000.11,2000.13,2000.16,2000.21,2000.28,2000.39,2000.57,2000.86,2001.35,2001.58,2000.99,2000.74,2000.83,2001.25,2001.67,2001.06,2000.69,2000.46,2000.32,2000.23,2000.17,2000.13,2000.11,2000.09,2000.08,2000.07,2000.06,2000.05,2000.05,2000.04,2000.04,2000.04,2000.03,2000.03,2000.03,2000.03,2000.03,2000.03,2000.02,2000.02,2000.02,2000.02,2000.02,2000.02,2000.02,2000.02,2000.02,2000.02,2000.02,2000.02,2000.01,2000.01,2000.01,2000.01,2000.01,2000.01,2000.01,2000.01,2000.01,2000.01,2000.01,2000.01,2000.01,2000.01,2000.01,2000.01,2000,2000
2000,2000,2000,2000,2000,2000,2000,2000,2000,2000,2000,2000,2000,2000,2000,2000,2000,2000.01,2000.01,2000.01,2000.01,2000.01,2000.01,2000.01,2000.02,2000.02,2000.02,2000.03,2000.03,2000.03,2000.04,2000.05,2000.05,2000.05,2000.06,2000.06,2000.06,2000.05,2000.05,2000.04,2000.04,2000.03,2000.03,2000.02,2000.02,2000.02,2000.01,2000.01,2000.01,2000.01,2000.01,2000.01,2000.01,2000.01,2000,2000,2000,2000,2000,2000,2000,2000,2000,2000,2000,2000,2000,2000,2000,2000,2000,2000,2000,2000,2000,2000,2000,2000,2000,2000,2000,2000,2000,2000,2000,2000,2000,2000,2000,2000,2000,2000,2000,2000,2000,2000,2000,2000,2000,2000,2000,2000,2000,2000,2000,2000,2000,2000,2000,2000.01,2000.01,2000.01,2000.01,2000.01,2000.01,2000.01,2000.01,2000.01,2000.01,2000.01,2000.01,2000.01,2000.01,2000.01,2000.01,2000.01,2000.01,2000.01,2000.01,2000.01,2000.01,2000.01,2000.01,2000.01,2000.01,2000.01,2000.01,2000.01,2000.01,2000.01,2000.02,2000.02,2000.02,2000.02,2000.02,2000.02,2000.03,2000.03,2000.03,2000.03,2000.03,2000.04,2000.04,2000.04,2000.04,2000.04,2000.04,2000.04,2000.04,2000.04,2000.04,2000.04,2000.04,2000.04,2000.04,2000.04,2000.04,2000.04,2000.04,2000.04,2000.04,2000.04,2000.04,2000.04,2000.04,2000.04,2000.04,2000.04,2000.04,2000.04,2000.04,2000.04,2000.03,2000.03,2000.03,2000.03,2000.03,2000.03,2000.03,2000.02,2000.02,2000.02,2000.02,2000.02,2000.02,2000.02,2000.02,2000.02,2000.02,2000.01,2000.01,2000.01,2000.01,2000.01,2000.01,2000.01,2000.01,2000.01,2000.01,2000.01,2000.01,2000.01,2000.01,2000.01,2000.01,2000.01,2000.01,2000.01,2000.01,2000.01,2000.01,2000.01,2000.01,2000.01,2000.01,2000.01,2000.01,2000.01,2000.01,2000.01,2000.01,2000.01,2000.01,2000.01,2000.01,2000.01,2000.01,2000.01,2000.01,2000.01,2000.01,2000.01,2000.01,2000.01,2000.01,2000.01,2000.01,2000.01,2000.01,2000.01,2000.01,2000.02,2000.02,2000.02,2000.02,2000.02,2000.03,2000.03,2000.03,2000.04,2000.04,2000.05,2000.05,2000.06,2000.07,2000.07,2000.08,2000.08,2000.09,2000.09,2000.09,2000.08,2000.08,2000.08,2000.07,2000.07,2000.07,2000.07,2000.07,2000.07,2000.07,2000.07,2000.07,2000.08,2000.08,2000.08,2000.09,2000.09,2000.1,2000.11,2000.12,2000.12,2000.13,2000.14,2000.15,2000.16,2000.17,2000.17,2000.18,2000.19,2000.2,2000.21,2000.21,2000.21,2000.22,2000.22,2000.22,2000.21,2000.21,2000.21,2000.2,2000.19,2000.18,2000.18,2000.17,2000.16,2000.15,2000.14,2000.13,2000.12,2000.11,2000.11,2000.1,2000.09,2000.09,2000.08,2000.08,2000.07,2000.07,2000.06,2000.06,2000.06,2000.05,2000.05,2000.05,2000.05,2000.05,2000.04,2000.04,2000.04,2000.04,2000.04,2000.04,2000.04,2000.04,2000.04,2000.04,2000.04,2000.04,2000.04,2000.05,2000.05,2000.05,2000.05,2000.06,2000.06,2000.07,2000.08,2000.09,2000.11,2000.14,2000.18,2000.24,2000.34,2000.51,2000.82,2001.44,2001.07,2000.19,1999.66,1999.44,1999.52,1999.89,2000.59,2001.68,2001.06,2000.63,2000.4,2000.27,2000.2,2000.15,2000.12,2000.09,2000.08,2000.06,2000.06,2000.05,2000.05,2000.04,2000.04,2000.04,2000.03,2000.03,2000.03,2000.03,2000.02,2000.02,2000.02,2000.02,2000.02,2000.02,2000.02,2000.02,2000.02,2000.02,2000.02,2000.02,2000.02,2000.01,2000.01,2000.01,2000.01,2000.01,2000.01,2000.01,2000.01,2000.01,2000.01,2000.01,2000.01,2000.01,2000.01,2000.01,2000.01,2000,2000,2000
2000,2000,2000,2000,2000,2000,2000,2000,2000,2000,2000,2000,2000,2000,2000,2000,2000,2000,2000.01,2000.01,2000.01,2000.01,2000.01,2000.01,2000.01,2000.02,2000.02,2000.02,2000.02,2000.03,2000.03,2000.03,2000.04,2000.04,2000.04,2000.04,2000.04,2000.04,2000.04,2000.03,2000.03,2000.03,2000.02,2000.02,2000.02,2000.01,2000.01,2000.01,2000.01,2000.01,2000.01,2000.01,2000.01,2000,2000,2000,2000,2000,2000,2000,2000,2000,2000,2000,2000,2000,2000,2000,2000,2000,2000,2000,2000,2000,2000,2000,2000,2000,2000,2000,2000,2000,2000,2000,2000,2000,2000,2000,2000,2000,2000,2000,2000,2000,2000,2000,2000,2000,2000,2000,2000,2000,2000,2000.01,2000.01,2000.01,2000.01,2000.01,2000.01,2000.01,2000.01,2000.01,2000.01,2000.01,2000.01,2000.01,2000.01,2000.01,2000.01,2000.01,2000.01,2000.01,2000.01,2000.01,2000.01,2000.01,2000.01,2000.01,2000.01,2000.01,2000.01,2000.01,2000.01,2000.01,2000.01,2000.01,2000.01,2000.01,2000.01,2000.01,2000.01,2000.02,2000.02,2000.02,2000.02,2000.02,2000.02,2000.03,2000.03,2000.03,2000.03,2000.03,2000.03,2000.04,2000.04,2000.04,2000.04,2000.04,2000.04,2000.04,2000.04,2000.04,2000.04,2000.04,2000.04,2000.04,2000.04,2000.05,2000.05,2000.05,2000.05,2000.05,2000.05,2000.05,2000.05,2000.05,2000.05,2000.04,2000.04,2000.04,2000.04,2000.04,2000.04,2000.04,2000.04,2000.03,2000.03,2000.03,2000.03,2000.03,2000.03,2000.02,2000.02,2000.02,2000.02,2000.02,2000.02,2000.02,2000.02,2000.02,2000.01,2000.01,2000.01,2000.01,2000.01,2000.01,2000.01,2000.01,2000.01,2000.01,2000.01,2000.01,2000.01,2000.01,2000.01,2000.01,2000.01,2000.01,2000.01,2000.01,2000.01,2000.01,2000.01,2000.01,2000.01,2000.01,2000.01,2000.01,2000.01,2000.01,2000.01,2000.01,2000.01,2000.01,2000.01,2000.01,2000.01,2000.01,2000.01,2000.01,2000.01,2000.01,2000.01,2000.01,2000.01,2000.01,2000.01,2000.01,2000.01,2000.01,2000.01,2000.02,2000.02,2000.02,2000.02,2000.02,2000.03,2000.03,2000.04,2000.04,2000.05,2000.05,2000.06,2000.07,2000.08,2000.09,2000.1,2000.11,2000.11,2000.11,2000.11,2000.1,2000.1,2000.09,2000.08,2000.08,2000.07,2000.07,2000.07,2000.07,2000.07,2000.07,2000.07,2000.07,2000.07,2000.08,2000.08,2000.09,2000.09,2000.1,2000.1,2000.11,2000.12,2000.12,2000.13,2000.14,2000.15,2000.15,2000.16,2000.17,2000.17,2000.18,2000.18,2000.18,2000.18,2000.19,2000.18,2000.18,2000.18,2000.18,2000.17,2000.17,2000.16,2000.15,2000.15,2000.14,2000.13,2000.12,2000.12,2000.11,2000.1,2000.1,2000.09,2000.09,2000.08,2000.07,2000.07,2000.07,2000.06,2000.06,2000.06,2000.05,2000.05,2000.05,2000.05,2000.05,2000.04,2000.04,2000.04,2000.04,2000.04,2000.04,2000.04,2000.04,2000.04,2000.04,2000.04,2000.04,2000.04,2000.04,2000.04,2000.05,2000.05,2000.05,2000.06,2000.06,2000.07,2000.08,2000.09,2000.11,2000.15,2000.19,2000.27,2000.4,2000.65,2001.17,2001.23,2000.03,1999.22,1998.73,1998.52,1998.59,1998.94,1999.6,2000.6,2001.66,2000.84,2000.5,2000.32,2000.22,2000.16,2000.12,2000.1,2000.08,2000.07,2000.06,2000.05,2000.04,2000.04,2000.04,2000.03,2000.03,2000.03,2000.03,2000.03,2000.02,2000.02,2000.02,2000.02,2000.02,2000.02,2000.02,2000.02,2000.02,2000.02,2000.02,2000.01,2000.01,2000.01,2000.01,2000.01,2000.01,2000.01,2000.01,2000.01,2000.01,2000.01,2000.01,2000.01,2000.01,2000.01,2000.01,2000.01,2000,2000,2000,2000
