207.406,207.523,207.647,207.772,207.899,208.028,208.157,208.289,208.421,208.555,208.691,208.828,208.972,209.121,209.278,209.438,209.598,209.761,209.926,210.092,210.26,210.43,210.602,210.784,210.97,211.168,211.368,211.569,211.773,211.98,212.188,212.399,212.613,212.838,213.068,213.31,213.558,213.808,214.061,214.317,214.575,214.837,215.107,215.389,215.679,215.982,216.288,216.598,216.911,217.228,217.548,217.883,218.229,218.585,218.956,219.33,219.709,220.092,220.479,220.88,221.297,221.721,222.169,222.622,223.078,223.54,224.006,224.501,225.004,225.52,226.06,226.604,227.154,227.709,228.293,228.892,229.497,230.139,230.786,231.438,232.099,232.804,233.513,234.236,234.997,235.763,236.535,237.352,238.185,239.023,239.903,240.8,241.703,242.666,243.639,244.619,245.641,246.688,247.766,248.896,250.031,251.172,252.376,253.603,254.912,256.226,257.544,258.897,260.318,261.834,263.351,264.871,266.41,268.089,269.839,271.589,273.338,275.111,240.454,239.554,238.667,237.793,236.934,236.087,235.254,234.434,233.628,232.835,232.056,231.29,230.538,229.799,229.073,228.361,227.662,226.977,226.305,225.647,225.002,224.37,223.752,223.147,222.556,221.979,221.414,220.863,220.326,219.802,219.291,218.794,218.31,217.84,217.383,216.94,216.51,216.093,215.69,215.3,214.924,214.561,214.212,213.876,213.554,213.245,212.949,212.667,212.398,212.143,211.901,211.673,211.458,211.256,211.068,210.893,210.732,210.584,210.45,210.329,210.221,210.127,210.047,209.98,209.926,209.886,209.859,209.845,209.845,209.859,209.886,209.926,209.98,210.047,210.127,210.221,210.329,210.45,210.584,210.732,210.893,211.068,211.256,211.458,211.673,211.901,212.143,212.398,212.667,212.949,213.245,213.554,213.876,214.212,214.561,214.924,215.3,215.69,216.093,216.51,216.94,217.383,217.84,218.31,218.794,219.291,219.802,220.326,220.863,221.414,221.979,222.556,223.147,223.752,224.37,225.002,225.647,226.305,226.977,227.662,228.361,229.073,229.799,230.538,231.29,232.056,232.835,233.628,234.434,235.254,236.087,236.934,237.793,238.667,239.554,240.454,275.111,273.338,271.589,269.839,268.089,266.41,264.871,263.351,261.834,260.318,258.897,257.544,256.226,254.912,253.603,252.376,251.172,250.031,248.896,247.766,246.688,245.641,244.619,243.639,242.666,241.703,240.8,239.903,239.023,238.185,237.352,236.535,235.763,234.997,234.236,233.513,232.804,232.099,231.438,230.786,230.139,229.497,228.892,228.293,227.709,227.154,226.604,226.06,225.52,225.004,224.501,224.006,223.54,223.078,222.622,222.169,221.721,221.297,220.88,220.479,220.092,219.709,219.33,218.956,218.585,218.229,217.883,217.548,217.228,216.911,216.598,216.288,215.982,215.679,215.389,215.107,214.837,214.575,214.317,214.061,213.808,213.558,213.31,213.068,212.838,212.613,212.399,212.188,211.98,211.773,211.569,211.368,211.168,210.97,210.784,210.602,210.43,210.26,210.092,209.926,209.761,209.598,209.438,209.278,209.121,208.972,208.828,208.691,208.555,208.421,208.289,208.157,208.028,207.899,207.772,207.647,207.523,207.406,207.293,207.185,207.078,206.973,206.868,206.764
207.409,207.526,207.647,207.772,207.899,208.028,208.157,208.288,208.421,208.555,208.691,208.83,208.977,209.125,209.278,209.437,209.598,209.761,209.926,210.092,210.26,210.43,210.607,210.791,210.976,211.168,211.368,211.57,211.774,211.98,212.189,212.4,212.618,212.846,213.076,213.311,213.559,213.809,214.062,214.318,214.576,214.839,215.118,215.401,215.686,215.983,216.29,216.6,216.913,217.23,217.556,217.898,218.244,218.593,218.958,219.333,219.711,220.094,220.487,220.9,221.318,221.74,222.172,222.625,223.082,223.544,224.029,224.528,225.031,225.539,226.065,226.61,227.16,227.735,228.329,228.928,229.533,230.146,230.794,231.447,232.146,232.851,233.561,234.278,235.008,235.775,236.586,237.413,238.247,239.087,239.932,240.815,241.775,242.745,243.72,244.701,245.688,246.741,247.868,248.999,250.136,251.278,252.449,253.733,255.045,256.36,257.68,259.045,260.486,262.004,263.524,265.046,266.671,268.326,270.058,271.811,273.628,240.054,239.14,238.24,237.353,236.479,235.619,234.773,233.94,233.12,232.314,231.521,230.742,229.976,229.224,228.485,227.759,227.047,226.348,225.663,224.991,224.333,223.688,223.056,222.438,221.833,221.242,220.664,220.1,219.549,219.012,218.488,217.977,217.48,216.996,216.526,216.069,215.626,215.196,214.779,214.376,213.986,213.61,213.247,212.898,212.562,212.24,211.931,211.635,211.353,211.084,210.829,210.587,210.358,210.143,209.942,209.754,209.579,209.418,209.27,209.136,209.015,208.907,208.813,208.733,208.665,208.612,208.571,208.545,208.531,208.531,208.545,208.571,208.612,208.665,208.733,208.813,208.907,209.015,209.136,209.27,209.418,209.579,209.754,209.942,210.143,210.358,210.587,210.829,211.084,211.353,211.635,211.931,212.24,212.562,212.898,213.247,213.61,213.986,214.376,214.779,215.196,215.626,216.069,216.526,216.996,217.48,217.977,218.488,219.012,219.549,220.1,220.664,221.242,221.833,222.438,223.056,223.688,224.333,224.991,225.663,226.348,227.047,227.759,228.485,229.224,229.976,230.742,231.521,232.314,233.12,233.94,234.773,235.619,236.479,237.353,238.24,239.14,240.054,273.628,271.811,270.058,268.326,266.671,265.046,263.524,262.004,260.486,259.045,257.68,256.36,255.045,253.733,252.449,251.278,250.136,248.999,247.868,246.741,245.688,244.701,243.72,242.745,241.775,240.815,239.932,239.087,238.247,237.413,236.586,235.775,235.008,234.278,233.561,232.851,232.146,231.447,230.794,230.146,229.533,228.928,228.329,227.735,227.16,226.61,226.065,225.539,225.031,224.528,224.029,223.544,223.082,222.625,222.172,221.74,221.318,220.9,220.487,220.094,219.711,219.333,218.958,218.593,218.244,217.898,217.556,217.23,216.913,216.6,216.29,215.983,215.686,215.401,215.118,214.839,214.576,214.318,214.062,213.809,213.559,213.311,213.076,212.846,212.618,212.4,212.189,211.98,211.774,211.57,211.368,211.168,210.976,210.791,210.607,210.43,210.26,210.092,209.926,209.761,209.598,209.437,209.278,209.125,208.977,208.83,208.691,208.555,208.421,208.288,208.157,208.028,207.899,207.772,207.647,207.526,207.409,207.294,207.185,207.078,206.972,206.868,206.764
207.412,207.529,207.647,207.772,207.899,208.027,208.157,208.288,208.421,208.555,208.69,208.835,208.981,209.129,209.279,209.437,209.598,209.761,209.926,210.092,210.26,210.431,210.613,210.797,210.983,211.171,211.368,211.57,211.774,211.981,212.189,212.401,212.626,212.854,213.085,213.318,213.559,213.81,214.063,214.319,214.578,214.85,215.13,215.412,215.698,215.987,216.291,216.601,216.915,217.233,217.572,217.914,218.26,218.61,218.964,219.336,219.715,220.098,220.508,220.922,221.34,221.762,222.189,222.63,223.088,223.563,224.058,224.557,225.061,225.57,226.084,226.618,227.184,227.773,228.368,228.968,229.573,230.184,230.806,231.496,232.196,232.902,233.614,234.332,235.055,235.828,236.652,237.481,238.316,239.157,240.004,240.915,241.861,242.833,243.81,244.793,245.82,246.888,247.98,249.114,250.253,251.435,252.673,253.916,255.191,256.51,257.898,259.332,260.77,262.211,263.723,265.381,267.04,268.7,270.361,272.182,239.68,238.753,237.839,236.939,236.052,235.179,234.319,233.472,232.639,231.82,231.013,230.221,229.441,228.675,227.923,227.184,226.458,225.746,225.047,224.362,223.69,223.032,222.387,221.755,221.137,220.533,219.942,219.364,218.799,218.248,217.711,217.187,216.676,216.179,215.696,215.225,214.768,214.325,213.895,213.478,213.075,212.686,212.309,211.947,211.597,211.261,210.939,210.63,210.334,210.052,209.783,209.528,209.286,209.058,208.843,208.641,208.453,208.278,208.117,207.969,207.835,207.714,207.607,207.513,207.432,207.365,207.311,207.271,207.244,207.23,207.23,207.244,207.271,207.311,207.365,207.432,207.513,207.607,207.714,207.835,207.969,208.117,208.278,208.453,208.641,208.843,209.058,209.286,209.528,209.783,210.052,210.334,210.63,210.939,211.261,211.597,211.947,212.309,212.686,213.075,213.478,213.895,214.325,214.768,215.225,215.696,216.179,216.676,217.187,217.711,218.248,218.799,219.364,219.942,220.533,221.137,221.755,222.387,223.032,223.69,224.362,225.047,225.746,226.458,227.184,227.923,228.675,229.441,230.221,231.013,231.82,232.639,233.472,234.319,235.179,236.052,236.939,237.839,238.753,239.68,272.182,270.361,268.7,267.04,265.381,263.723,262.211,260.77,259.332,257.898,256.51,255.191,253.916,252.673,251.435,250.253,249.114,247.98,246.888,245.82,244.793,243.81,242.833,241.861,240.915,240.004,239.157,238.316,237.481,236.652,235.828,235.055,234.332,233.614,232.902,232.196,231.496,230.806,230.184,229.573,228.968,228.368,227.773,227.184,226.618,226.084,225.57,225.061,224.557,224.058,223.563,223.088,222.63,222.189,221.762,221.34,220.922,220.508,220.098,219.715,219.336,218.964,218.61,218.26,217.914,217.572,217.233,216.915,216.601,216.291,215.987,215.698,215.412,215.13,214.85,214.578,214.319,214.063,213.81,213.559,213.318,213.085,212.854,212.626,212.401,212.189,211.981,211.774,211.57,211.368,211.171,210.983,210.797,210.613,210.431,210.26,210.092,209.926,209.761,209.598,209.437,209.279,209.129,208.981,208.835,208.69,208.555,208.421,208.288,208.157,208.027,207.899,207.772,207.647,207.529,207.412,207.297,207.185,207.078,206.972,206.867,206.764
207.415,207.532,207.65,207.772,207.899,208.027,208.157,208.288,208.421,208.555,208.694,208.839,208.986,209.134,209.284,209.437,209.598,209.761,209.926,210.092,210.26,210.437,210.619,210.803,210.989,211.177,211.368,211.57,211.775,211.981,212.19,212.409,212.635,212.863,213.094,213.327,213.564,213.811,214.064,214.32,214.585,214.862,215.142,215.425,215.711,216,216.294,216.604,216.918,217.249,217.588,217.931,218.277,218.627,218.981,219.34,219.72,220.12,220.53,220.945,221.363,221.786,222.214,222.646,223.103,223.593,224.088,224.588,225.093,225.603,226.118,226.648,227.224,227.814,228.41,229.011,229.617,230.229,230.879,231.55,232.251,232.958,233.672,234.391,235.15,235.931,236.723,237.554,238.391,239.234,240.141,241.057,241.979,242.929,243.908,244.937,246.002,247.073,248.149,249.239,250.43,251.668,252.91,254.157,255.409,256.76,258.196,259.636,261.079,262.568,264.151,265.765,267.43,269.115,240.287,239.333,238.393,237.466,236.552,235.652,234.765,233.891,233.032,232.185,231.352,230.532,229.726,228.933,228.154,227.388,226.636,225.897,225.171,224.459,223.76,223.075,222.403,221.745,221.1,220.468,219.85,219.245,218.654,218.076,217.512,216.961,216.424,215.9,215.389,214.892,214.408,213.938,213.481,213.038,212.608,212.191,211.788,211.398,211.022,210.659,210.31,209.974,209.652,209.343,209.047,208.765,208.496,208.241,207.999,207.771,207.556,207.354,207.166,206.991,206.83,206.682,206.548,206.427,206.319,206.225,206.145,206.078,206.024,205.983,205.957,205.943,205.943,205.957,205.983,206.024,206.078,206.145,206.225,206.319,206.427,206.548,206.682,206.83,206.991,207.166,207.354,207.556,207.771,207.999,208.241,208.496,208.765,209.047,209.343,209.652,209.974,210.31,210.659,211.022,211.398,211.788,212.191,212.608,213.038,213.481,213.938,214.408,214.892,215.389,215.9,216.424,216.961,217.512,218.076,218.654,219.245,219.85,220.468,221.1,221.745,222.403,223.075,223.76,224.459,225.171,225.897,226.636,227.388,228.154,228.933,229.726,230.532,231.352,232.185,233.032,233.891,234.765,235.652,236.552,237.466,238.393,239.333,240.287,269.115,267.43,265.765,264.151,262.568,261.079,259.636,258.196,256.76,255.409,254.157,252.91,251.668,250.43,249.239,248.149,247.073,246.002,244.937,243.908,242.929,241.979,241.057,240.141,239.234,238.391,237.554,236.723,235.931,235.15,234.391,233.672,232.958,232.251,231.55,230.879,230.229,229.617,229.011,228.41,227.814,227.224,226.648,226.118,225.603,225.093,224.588,224.088,223.593,223.103,222.646,222.214,221.786,221.363,220.945,220.53,220.12,219.72,219.34,218.981,218.627,218.277,217.931,217.588,217.249,216.918,216.604,216.294,216,215.711,215.425,215.142,214.862,214.585,214.32,214.064,213.811,213.564,213.327,213.094,212.863,212.635,212.409,212.19,211.981,211.775,211.57,211.368,211.177,210.989,210.803,210.619,210.437,210.26,210.092,209.926,209.761,209.598,209.437,209.284,209.134,208.986,208.839,208.694,208.555,208.421,208.288,208.157,208.027,207.899,207.772,207.65,207.532,207.415,207.3,207.185,207.078,206.972,206.867,206.764
207.418,207.535,207.654,207.773,207.898,208.027,208.156,208.288,208.42,208.555,208.698,208.843,208.99,209.138,209.288,209.44,209.598,209.761,209.926,210.092,210.263,210.443,210.625,210.809,210.995,211.184,211.374,211.571,211.775,211.982,212.194,212.417,212.644,212.872,213.103,213.337,213.573,213.812,214.066,214.322,214.597,214.874,215.154,215.438,215.724,216.014,216.307,216.607,216.93,217.266,217.605,217.949,218.295,218.646,219,219.359,219.736,220.143,220.554,220.969,221.388,221.812,222.24,222.674,223.14,223.625,224.121,224.622,225.128,225.638,226.158,226.713,227.274,227.858,228.455,229.057,229.665,230.305,230.966,231.632,232.31,233.019,233.734,234.485,235.263,236.046,236.835,237.634,238.473,239.376,240.288,241.207,242.132,243.063,244.062,245.125,246.193,247.268,248.348,249.492,250.674,251.912,253.159,254.411,255.773,257.146,258.522,259.955,261.478,263.066,264.656,266.249,267.912,239.981,239.014,238.06,237.119,236.192,235.278,234.378,233.491,232.618,231.758,230.911,230.078,229.258,228.452,227.66,226.88,226.114,225.362,224.623,223.897,223.185,222.486,221.801,221.129,220.471,219.826,219.194,218.576,217.972,217.38,216.803,216.238,215.687,215.15,214.626,214.115,213.618,213.134,212.664,212.207,211.764,211.334,210.917,210.514,210.125,209.748,209.386,209.036,208.7,208.378,208.069,207.773,207.491,207.222,206.967,206.725,206.497,206.282,206.08,205.892,205.717,205.556,205.408,205.274,205.153,205.046,204.952,204.871,204.804,204.75,204.71,204.683,204.669,204.669,204.683,204.71,204.75,204.804,204.871,204.952,205.046,205.153,205.274,205.408,205.556,205.717,205.892,206.08,206.282,206.497,206.725,206.967,207.222,207.491,207.773,208.069,208.378,208.7,209.036,209.386,209.748,210.125,210.514,210.917,211.334,211.764,212.207,212.664,213.134,213.618,214.115,214.626,215.15,215.687,216.238,216.803,217.38,217.972,218.576,219.194,219.826,220.471,221.129,221.801,222.486,223.185,223.897,224.623,225.362,226.114,226.88,227.66,228.452,229.258,230.078,230.911,231.758,232.618,233.491,234.378,235.278,236.192,237.119,238.06,239.014,239.981,267.912,266.249,264.656,263.066,261.478,259.955,258.522,257.146,255.773,254.411,253.159,251.912,250.674,249.492,248.348,247.268,246.193,245.125,244.062,243.063,242.132,241.207,240.288,239.376,238.473,237.634,236.835,236.046,235.263,234.485,233.734,233.019,232.31,231.632,230.966,230.305,229.665,229.057,228.455,227.858,227.274,226.713,226.158,225.638,225.128,224.622,224.121,223.625,223.14,222.674,222.24,221.812,221.388,220.969,220.554,220.143,219.736,219.359,219,218.646,218.295,217.949,217.605,217.266,216.93,216.607,216.307,216.014,215.724,215.438,215.154,214.874,214.597,214.322,214.066,213.812,213.573,213.337,213.103,212.872,212.644,212.417,212.194,211.982,211.775,211.571,211.374,211.184,210.995,210.809,210.625,210.443,210.263,210.092,209.926,209.761,209.598,209.44,209.288,209.138,208.99,208.843,208.698,208.555,208.42,208.288,208.156,208.027,207.898,207.773,207.654,207.535,207.418,207.303,207.188,207.077,206.971,206.867,206.763
207.421,207.538,207.657,207.776,207.898,208.026,208.156,208.287,208.42,208.558,208.702,208.847,208.994,209.143,209.293,209.445,209.598,209.761,209.926,210.092,210.268,210.449,210.631,210.815,211.002,211.19,211.381,211.574,211.776,211.983,212.202,212.426,212.652,212.881,213.112,213.346,213.583,213.822,214.068,214.334,214.609,214.887,215.167,215.451,215.738,216.028,216.321,216.62,216.947,217.283,217.623,217.967,218.314,218.666,219.021,219.384,219.77,220.167,220.579,220.995,221.415,221.839,222.268,222.725,223.191,223.662,224.156,224.658,225.164,225.676,226.225,226.781,227.343,227.91,228.503,229.107,229.737,230.394,231.056,231.724,232.398,233.085,233.827,234.601,235.381,236.166,236.958,237.757,238.617,239.527,240.442,241.364,242.293,243.275,244.291,245.322,246.394,247.473,248.622,249.805,250.993,252.186,253.43,254.8,256.175,257.554,258.937,260.427,261.986,263.582,265.18,266.895,239.701,238.721,237.753,236.799,235.859,234.931,234.018,233.118,232.231,231.357,230.497,229.651,228.818,227.998,227.192,226.399,225.62,224.854,224.102,223.362,222.637,221.925,221.226,220.541,219.869,219.211,218.566,217.934,217.316,216.711,216.12,215.542,214.978,214.427,213.89,213.366,212.855,212.358,211.874,211.404,210.947,210.504,210.074,209.657,209.254,208.864,208.488,208.125,207.776,207.44,207.118,206.809,206.513,206.231,205.962,205.707,205.465,205.236,205.021,204.82,204.632,204.457,204.296,204.148,204.014,203.893,203.785,203.691,203.611,203.543,203.49,203.449,203.422,203.409,203.409,203.422,203.449,203.49,203.543,203.611,203.691,203.785,203.893,204.014,204.148,204.296,204.457,204.632,204.82,205.021,205.236,205.465,205.707,205.962,206.231,206.513,206.809,207.118,207.44,207.776,208.125,208.488,208.864,209.254,209.657,210.074,210.504,210.947,211.404,211.874,212.358,212.855,213.366,213.89,214.427,214.978,215.542,216.12,216.711,217.316,217.934,218.566,219.211,219.869,220.541,221.226,221.925,222.637,223.362,224.102,224.854,225.62,226.399,227.192,227.998,228.818,229.651,230.497,231.357,232.231,233.118,234.018,234.931,235.859,236.799,237.753,238.721,239.701,266.895,265.18,263.582,261.986,260.427,258.937,257.554,256.175,254.8,253.43,252.186,250.993,249.805,248.622,247.473,246.394,245.322,244.291,243.275,242.293,241.364,240.442,239.527,238.617,237.757,236.958,236.166,235.381,234.601,233.827,233.085,232.398,231.724,231.056,230.394,229.737,229.107,228.503,227.91,227.343,226.781,226.225,225.676,225.164,224.658,224.156,223.662,223.191,222.725,222.268,221.839,221.415,220.995,220.579,220.167,219.77,219.384,219.021,218.666,218.314,217.967,217.623,217.283,216.947,216.62,216.321,216.028,215.738,215.451,215.167,214.887,214.609,214.334,214.068,213.822,213.583,213.346,213.112,212.881,212.652,212.426,212.202,211.983,211.776,211.574,211.381,211.19,211.002,210.815,210.631,210.449,210.268,210.092,209.926,209.761,209.598,209.445,209.293,209.143,208.994,208.847,208.702,208.558,208.42,208.287,208.156,208.026,207.898,207.776,207.657,207.538,207.421,207.305,207.191,207.077,206.971,206.866,206.763
207.424,207.541,207.659,207.779,207.9,208.026,208.156,208.287,208.42,208.562,208.706,208.851,208.998,209.147,209.297,209.449,209.603,209.761,209.926,210.096,210.274,210.455,210.637,210.822,211.008,211.197,211.388,211.581,211.777,211.989,212.211,212.435,212.661,212.89,213.122,213.356,213.593,213.833,214.079,214.347,214.622,214.9,215.181,215.465,215.752,216.042,216.336,216.648,216.967,217.301,217.642,217.986,218.334,218.686,219.042,219.422,219.809,220.2,220.605,221.022,221.443,221.868,222.314,222.776,223.244,223.716,224.193,224.695,225.203,225.742,226.294,226.852,227.415,227.984,228.558,229.175,229.828,230.486,231.151,231.821,232.497,233.2,233.945,234.722,235.504,236.293,237.088,237.941,238.811,239.687,240.603,241.529,242.509,243.524,244.545,245.572,246.605,247.758,248.941,250.129,251.323,252.543,253.863,255.209,256.59,257.977,259.494,261.029,262.568,264.115,240.457,239.449,238.455,237.474,236.506,235.552,234.612,233.685,232.771,231.871,230.984,230.11,229.25,228.404,227.571,226.751,225.945,225.152,224.373,223.607,222.855,222.116,221.39,220.678,219.979,219.294,218.622,217.964,217.319,216.687,216.069,215.464,214.873,214.295,213.731,213.18,212.643,212.119,211.608,211.111,210.627,210.157,209.7,209.257,208.827,208.41,208.007,207.617,207.241,206.878,206.529,206.193,205.871,205.562,205.266,204.984,204.715,204.46,204.218,203.989,203.775,203.573,203.385,203.21,203.049,202.901,202.767,202.646,202.538,202.444,202.364,202.296,202.243,202.202,202.176,202.162,202.162,202.176,202.202,202.243,202.296,202.364,202.444,202.538,202.646,202.767,202.901,203.049,203.21,203.385,203.573,203.775,203.989,204.218,204.46,204.715,204.984,205.266,205.562,205.871,206.193,206.529,206.878,207.241,207.617,208.007,208.41,208.827,209.257,209.7,210.157,210.627,211.111,211.608,212.119,212.643,213.18,213.731,214.295,214.873,215.464,216.069,216.687,217.319,217.964,218.622,219.294,219.979,220.678,221.39,222.116,222.855,223.607,224.373,225.152,225.945,226.751,227.571,228.404,229.25,230.11,230.984,231.871,232.771,233.685,234.612,235.552,236.506,237.474,238.455,239.449,240.457,264.115,262.568,261.029,259.494,257.977,256.59,255.209,253.863,252.543,251.323,250.129,248.941,247.758,246.605,245.572,244.545,243.524,242.509,241.529,240.603,239.687,238.811,237.941,237.088,236.293,235.504,234.722,233.945,233.2,232.497,231.821,231.151,230.486,229.828,229.175,228.558,227.984,227.415,226.852,226.294,225.742,225.203,224.695,224.193,223.716,223.244,222.776,222.314,221.868,221.443,221.022,220.605,220.2,219.809,219.422,219.042,218.686,218.334,217.986,217.642,217.301,216.967,216.648,216.336,216.042,215.752,215.465,215.181,214.9,214.622,214.347,214.079,213.833,213.593,213.356,213.122,212.89,212.661,212.435,212.211,211.989,211.777,211.581,211.388,211.197,211.008,210.822,210.637,210.455,210.274,210.096,209.926,209.761,209.603,209.449,209.297,209.147,208.998,208.851,208.706,208.562,208.42,208.287,208.156,208.026,207.9,207.779,207.659,207.541,207.424,207.308,207.193,207.08,206.97,206.865,206.762
207.427,207.544,207.662,207.782,207.903,208.026,208.155,208.286,208.424,208.566,208.71,208.855,209.003,209.151,209.302,209.454,209.607,209.763,209.926,210.101,210.28,210.461,210.644,210.828,211.015,211.204,211.395,211.588,211.784,211.998,212.22,212.444,212.671,212.9,213.132,213.366,213.604,213.843,214.1,214.361,214.635,214.913,215.194,215.479,215.767,216.058,216.36,216.677,216.997,217.32,217.661,218.006,218.355,218.707,219.078,219.461,219.849,220.241,220.637,221.05,221.472,221.907,222.366,222.83,223.299,223.772,224.251,224.735,225.262,225.811,226.366,226.926,227.491,228.061,228.645,229.269,229.921,230.582,231.249,231.922,232.614,233.351,234.094,234.847,235.633,236.424,237.27,238.138,239.012,239.892,240.779,241.747,242.761,243.78,244.806,245.839,246.95,248.09,249.269,250.464,251.694,253.017,254.344,255.677,257.024,258.561,260.102,261.647,263.21,240.244,239.223,238.215,237.221,236.24,235.273,234.319,233.378,232.451,231.537,230.637,229.75,228.877,228.017,227.17,226.337,225.518,224.712,223.919,223.139,222.374,221.621,220.882,220.156,219.444,218.746,218.06,217.389,216.73,216.085,215.454,214.836,214.231,213.64,213.062,212.498,211.947,211.409,210.885,210.375,209.877,209.394,208.923,208.467,208.023,207.593,207.177,206.774,206.384,206.008,205.645,205.296,204.96,204.637,204.328,204.032,203.75,203.482,203.226,202.984,202.756,202.541,202.339,202.151,201.977,201.815,201.668,201.533,201.412,201.305,201.211,201.13,201.063,201.009,200.969,200.942,200.929,200.929,200.942,200.969,201.009,201.063,201.13,201.211,201.305,201.412,201.533,201.668,201.815,201.977,202.151,202.339,202.541,202.756,202.984,203.226,203.482,203.75,204.032,204.328,204.637,204.96,205.296,205.645,206.008,206.384,206.774,207.177,207.593,208.023,208.467,208.923,209.394,209.877,210.375,210.885,211.409,211.947,212.498,213.062,213.64,214.231,214.836,215.454,216.085,216.73,217.389,218.06,218.746,219.444,220.156,220.882,221.621,222.374,223.139,223.919,224.712,225.518,226.337,227.17,228.017,228.877,229.75,230.637,231.537,232.451,233.378,234.319,235.273,236.24,237.221,238.215,239.223,240.244,263.21,261.647,260.102,258.561,257.024,255.677,254.344,253.017,251.694,250.464,249.269,248.09,246.95,245.839,244.806,243.78,242.761,241.747,240.779,239.892,239.012,238.138,237.27,236.424,235.633,234.847,234.094,233.351,232.614,231.922,231.249,230.582,229.921,229.269,228.645,228.061,227.491,226.926,226.366,225.811,225.262,224.735,224.251,223.772,223.299,222.83,222.366,221.907,221.472,221.05,220.637,220.241,219.849,219.461,219.078,218.707,218.355,218.006,217.661,217.32,216.997,216.677,216.36,216.058,215.767,215.479,215.194,214.913,214.635,214.361,214.1,213.843,213.604,213.366,213.132,212.9,212.671,212.444,212.22,211.998,211.784,211.588,211.395,211.204,211.015,210.828,210.644,210.461,210.28,210.101,209.926,209.763,209.607,209.454,209.302,209.151,209.003,208.855,208.71,208.566,208.424,208.286,208.155,208.026,207.903,207.782,207.662,207.544,207.427,207.311,207.196,207.082,206.97,206.865,206.761
207.429,207.546,207.665,207.785,207.906,208.029,208.154,208.286,208.427,208.57,208.714,208.859,209.007,209.155,209.306,209.458,209.612,209.768,209.93,210.107,210.286,210.467,210.65,210.835,211.022,211.211,211.402,211.595,211.798,212.009,212.228,212.453,212.68,212.91,213.142,213.377,213.614,213.862,214.121,214.382,214.648,214.927,215.209,215.494,215.782,216.075,216.389,216.706,217.027,217.351,217.682,218.027,218.377,218.736,219.117,219.501,219.89,220.283,220.68,221.081,221.503,221.959,222.42,222.885,223.355,223.83,224.31,224.805,225.333,225.884,226.44,227.001,227.569,228.141,228.762,229.389,230.021,230.682,231.351,232.033,232.767,233.507,234.253,235.005,235.766,236.603,237.469,238.341,239.219,240.104,241.038,242.015,243.02,244.045,245.077,246.189,247.329,248.475,249.628,250.846,252.171,253.502,254.838,256.199,257.691,259.187,260.725,262.325,240.059,239.024,238.003,236.995,236.001,235.02,234.053,233.099,232.158,231.231,230.317,229.417,228.53,227.657,226.797,225.95,225.117,224.298,223.491,222.699,221.919,221.153,220.401,219.662,218.936,218.224,217.526,216.84,216.168,215.51,214.865,214.234,213.616,213.011,212.42,211.842,211.278,210.727,210.189,209.665,209.155,208.657,208.174,207.703,207.247,206.803,206.373,205.957,205.554,205.164,204.788,204.425,204.075,203.74,203.417,203.108,202.812,202.53,202.262,202.006,201.764,201.536,201.321,201.119,200.931,200.757,200.595,200.448,200.313,200.192,200.085,199.991,199.91,199.843,199.789,199.749,199.722,199.709,199.709,199.722,199.749,199.789,199.843,199.91,199.991,200.085,200.192,200.313,200.448,200.595,200.757,200.931,201.119,201.321,201.536,201.764,202.006,202.262,202.53,202.812,203.108,203.417,203.74,204.075,204.425,204.788,205.164,205.554,205.957,206.373,206.803,207.247,207.703,208.174,208.657,209.155,209.665,210.189,210.727,211.278,211.842,212.42,213.011,213.616,214.234,214.865,215.51,216.168,216.84,217.526,218.224,218.936,219.662,220.401,221.153,221.919,222.699,223.491,224.298,225.117,225.95,226.797,227.657,228.53,229.417,230.317,231.231,232.158,233.099,234.053,235.02,236.001,236.995,238.003,239.024,240.059,262.325,260.725,259.187,257.691,256.199,254.838,253.502,252.171,250.846,249.628,248.475,247.329,246.189,245.077,244.045,243.02,242.015,241.038,240.104,239.219,238.341,237.469,236.603,235.766,235.005,234.253,233.507,232.767,232.033,231.351,230.682,230.021,229.389,228.762,228.141,227.569,227.001,226.44,225.884,225.333,224.805,224.31,223.83,223.355,222.885,222.42,221.959,221.503,221.081,220.68,220.283,219.89,219.501,219.117,218.736,218.377,218.027,217.682,217.351,217.027,216.706,216.389,216.075,215.782,215.494,215.209,214.927,214.648,214.382,214.121,213.862,213.614,213.377,213.142,212.91,212.68,212.453,212.228,212.009,211.798,211.595,211.402,211.211,211.022,210.835,210.65,210.467,210.286,210.107,209.93,209.768,209.612,209.458,209.306,209.155,209.007,208.859,208.714,208.57,208.427,208.286,208.154,208.029,207.906,207.785,207.665,207.546,207.429,207.313,207.198,207.085,206.972,206.864,206.76
207.432,207.549,207.668,207.788,207.909,208.031,208.156,208.29,208.431,208.573,208.718,208.863,209.011,209.16,209.31,209.463,209.617,209.773,209.94,210.113,210.292,210.473,210.656,210.841,211.028,211.217,211.409,211.605,211.813,212.024,212.237,212.462,212.69,212.92,213.152,213.387,213.627,213.883,214.142,214.404,214.669,214.941,215.223,215.509,215.798,216.104,216.418,216.736,217.057,217.382,217.711,218.049,218.399,218.776,219.157,219.543,219.932,220.326,220.724,221.127,221.556,222.013,222.475,222.942,223.414,223.89,224.373,224.895,225.422,225.958,226.516,227.08,227.649,228.258,228.882,229.511,230.146,230.788,231.457,232.186,232.923,233.667,234.416,235.173,235.97,236.804,237.673,238.55,239.433,240.36,241.335,242.317,243.306,244.318,245.428,246.569,247.716,248.87,250.071,251.356,252.659,253.998,255.376,256.873,258.376,259.883,261.463,239.9,238.852,237.818,236.796,235.789,234.794,233.814,232.846,231.892,230.952,230.024,229.111,228.21,227.324,226.45,225.59,224.744,223.911,223.091,222.285,221.492,220.713,219.947,219.194,218.455,217.73,217.018,216.319,215.634,214.962,214.303,213.659,213.027,212.409,211.804,211.213,210.635,210.071,209.52,208.983,208.459,207.948,207.451,206.967,206.497,206.04,205.597,205.167,204.75,204.347,203.957,203.581,203.218,202.869,202.533,202.21,201.901,201.606,201.324,201.055,200.8,200.558,200.329,200.114,199.913,199.725,199.55,199.389,199.241,199.107,198.986,198.878,198.784,198.704,198.636,198.583,198.542,198.515,198.502,198.502,198.515,198.542,198.583,198.636,198.704,198.784,198.878,198.986,199.107,199.241,199.389,199.55,199.725,199.913,200.114,200.329,200.558,200.8,201.055,201.324,201.606,201.901,202.21,202.533,202.869,203.218,203.581,203.957,204.347,204.75,205.167,205.597,206.04,206.497,206.967,207.451,207.948,208.459,208.983,209.52,210.071,210.635,211.213,211.804,212.409,213.027,213.659,214.303,214.962,215.634,216.319,217.018,217.73,218.455,219.194,219.947,220.713,221.492,222.285,223.091,223.911,224.744,225.59,226.45,227.324,228.21,229.111,230.024,230.952,231.892,232.846,233.814,234.794,235.789,236.796,237.818,238.852,239.9,261.463,259.883,258.376,256.873,255.376,253.998,252.659,251.356,250.071,248.87,247.716,246.569,245.428,244.318,243.306,242.317,241.335,240.36,239.433,238.55,237.673,236.804,235.97,235.173,234.416,233.667,232.923,232.186,231.457,230.788,230.146,229.511,228.882,228.258,227.649,227.08,226.516,225.958,225.422,224.895,224.373,223.89,223.414,222.942,222.475,222.013,221.556,221.127,220.724,220.326,219.932,219.543,219.157,218.776,218.399,218.049,217.711,217.382,217.057,216.736,216.418,216.104,215.798,215.509,215.223,214.941,214.669,214.404,214.142,213.883,213.627,213.387,213.152,212.92,212.69,212.462,212.237,212.024,211.813,211.605,211.409,211.217,211.028,210.841,210.656,210.473,210.292,210.113,209.94,209.773,209.617,209.463,209.31,209.16,209.011,208.863,208.718,208.573,208.431,208.29,208.156,208.031,207.909,207.788,207.668,207.549,207.432,207.316,207.201,207.087,206.975,206.863,206.759
207.434,207.551,207.67,207.79,207.912,208.034,208.159,208.293,208.434,208.577,208.721,208.867,209.015,209.164,209.315,209.467,209.621,209.782,209.95,210.12,210.298,210.479,210.662,210.848,211.035,211.224,211.416,211.619,211.828,212.039,212.253,212.472,212.699,212.93,213.163,213.398,213.648,213.904,214.164,214.426,214.692,214.96,215.238,215.524,215.821,216.132,216.448,216.766,217.089,217.414,217.744,218.077,218.437,218.816,219.198,219.585,219.976,220.371,220.77,221.187,221.624,222.068,222.532,223,223.474,223.952,224.462,224.986,225.515,226.05,226.595,227.161,227.757,228.378,229.004,229.636,230.275,230.919,231.612,232.343,233.084,233.831,234.584,235.371,236.203,237.041,237.887,238.764,239.683,240.658,241.639,242.627,243.623,244.694,245.81,246.958,248.113,249.316,250.605,251.9,253.201,254.549,256.051,257.56,259.073,260.681,239.769,238.707,237.659,236.624,235.603,234.596,233.601,232.62,231.653,230.699,229.758,228.831,227.918,227.017,226.13,225.257,224.397,223.551,222.718,221.898,221.092,220.299,219.52,218.754,218.001,217.262,216.537,215.825,215.126,214.441,213.769,213.11,212.465,211.834,211.216,210.611,210.02,209.442,208.878,208.327,207.789,207.265,206.755,206.258,205.774,205.304,204.847,204.403,203.973,203.557,203.154,202.764,202.388,202.025,201.676,201.34,201.017,200.708,200.413,200.13,199.862,199.606,199.365,199.136,198.921,198.72,198.532,198.357,198.196,198.048,197.913,197.792,197.685,197.591,197.51,197.443,197.389,197.349,197.322,197.309,197.309,197.322,197.349,197.389,197.443,197.51,197.591,197.685,197.792,197.913,198.048,198.196,198.357,198.532,198.72,198.921,199.136,199.365,199.606,199.862,200.13,200.413,200.708,201.017,201.34,201.676,202.025,202.388,202.764,203.154,203.557,203.973,204.403,204.847,205.304,205.774,206.258,206.755,207.265,207.789,208.327,208.878,209.442,210.02,210.611,211.216,211.834,212.465,213.11,213.769,214.441,215.126,215.825,216.537,217.262,218.001,218.754,219.52,220.299,221.092,221.898,222.718,223.551,224.397,225.257,226.13,227.017,227.918,228.831,229.758,230.699,231.653,232.62,233.601,234.596,235.603,236.624,237.659,238.707,239.769,260.681,259.073,257.56,256.051,254.549,253.201,251.9,250.605,249.316,248.113,246.958,245.81,244.694,243.623,242.627,241.639,240.658,239.683,238.764,237.887,237.041,236.203,235.371,234.584,233.831,233.084,232.343,231.612,230.919,230.275,229.636,229.004,228.378,227.757,227.161,226.595,226.05,225.515,224.986,224.462,223.952,223.474,223,222.532,222.068,221.624,221.187,220.77,220.371,219.976,219.585,219.198,218.816,218.437,218.077,217.744,217.414,217.089,216.766,216.448,216.132,215.821,215.524,215.238,214.96,214.692,214.426,214.164,213.904,213.648,213.398,213.163,212.93,212.699,212.472,212.253,212.039,211.828,211.619,211.416,211.224,211.035,210.848,210.662,210.479,210.298,210.12,209.95,209.782,209.621,209.467,209.315,209.164,209.015,208.867,208.721,208.577,208.434,208.293,208.159,208.034,207.912,207.79,207.67,207.551,207.434,207.318,207.203,207.089,206.977,206.865,206.758
207.436,207.554,207.673,207.793,207.914,208.037,208.166,208.3,208.438,208.581,208.725,208.871,209.019,209.168,209.319,209.472,209.626,209.792,209.961,210.131,210.303,210.485,210.668,210.854,211.042,211.232,211.427,211.634,211.843,212.055,212.269,212.485,212.709,212.94,213.173,213.414,213.668,213.925,214.185,214.448,214.714,214.984,215.256,215.54,215.849,216.162,216.478,216.797,217.12,217.447,217.778,218.119,218.481,218.856,219.24,219.628,220.02,220.416,220.821,221.255,221.694,222.138,222.59,223.06,223.535,224.033,224.554,225.08,225.611,226.148,226.691,227.259,227.877,228.5,229.13,229.765,230.407,231.086,231.794,232.508,233.248,233.999,234.774,235.604,236.44,237.284,238.135,239.015,239.981,240.962,241.95,242.945,244.01,245.118,246.233,247.356,248.559,249.85,251.149,252.453,253.81,255.279,256.753,258.258,259.889,239.664,238.589,237.527,236.479,235.445,234.424,233.416,232.421,231.441,230.473,229.519,228.579,227.651,226.738,225.838,224.951,224.077,223.217,222.371,221.538,220.718,219.912,219.119,218.34,217.574,216.822,216.082,215.357,214.645,213.946,213.261,212.589,211.931,211.286,210.654,210.036,209.431,208.84,208.262,207.698,207.147,206.61,206.086,205.575,205.078,204.594,204.124,203.667,203.224,202.794,202.377,201.974,201.584,201.208,200.845,200.496,200.16,199.838,199.529,199.233,198.951,198.682,198.427,198.185,197.956,197.741,197.54,197.352,197.177,197.016,196.868,196.734,196.613,196.505,196.411,196.331,196.263,196.21,196.169,196.142,196.129,196.129,196.142,196.169,196.21,196.263,196.331,196.411,196.505,196.613,196.734,196.868,197.016,197.177,197.352,197.54,197.741,197.956,198.185,198.427,198.682,198.951,199.233,199.529,199.838,200.16,200.496,200.845,201.208,201.584,201.974,202.377,202.794,203.224,203.667,204.124,204.594,205.078,205.575,206.086,206.61,207.147,207.698,208.262,208.84,209.431,210.036,210.654,211.286,211.931,212.589,213.261,213.946,214.645,215.357,216.082,216.822,217.574,218.34,219.119,219.912,220.718,221.538,222.371,223.217,224.077,224.951,225.838,226.738,227.651,228.579,229.519,230.473,231.441,232.421,233.416,234.424,235.445,236.479,237.527,238.589,239.664,259.889,258.258,256.753,255.279,253.81,252.453,251.149,249.85,248.559,247.356,246.233,245.118,244.01,242.945,241.95,240.962,239.981,239.015,238.135,237.284,236.44,235.604,234.774,233.999,233.248,232.508,231.794,231.086,230.407,229.765,229.13,228.5,227.877,227.259,226.691,226.148,225.611,225.08,224.554,224.033,223.535,223.06,222.59,222.138,221.694,221.255,220.821,220.416,220.02,219.628,219.24,218.856,218.481,218.119,217.778,217.447,217.12,216.797,216.478,216.162,215.849,215.54,215.256,214.984,214.714,214.448,214.185,213.925,213.668,213.414,213.173,212.94,212.709,212.485,212.269,212.055,211.843,211.634,211.427,211.232,211.042,210.854,210.668,210.485,210.303,210.131,209.961,209.792,209.626,209.472,209.319,209.168,209.019,208.871,208.725,208.581,208.438,208.3,208.166,208.037,207.914,207.793,207.673,207.554,207.436,207.32,207.205,207.091,206.979,206.867,206.758
207.438,207.556,207.675,207.795,207.917,208.04,208.172,208.307,208.442,208.584,208.729,208.875,209.023,209.172,209.323,209.476,209.636,209.802,209.971,210.141,210.314,210.491,210.675,210.861,211.049,211.239,211.441,211.649,211.858,212.07,212.284,212.501,212.721,212.95,213.184,213.434,213.689,213.947,214.207,214.471,214.738,215.008,215.28,215.568,215.878,216.192,216.508,216.829,217.153,217.481,217.812,218.169,218.532,218.9,219.283,219.672,220.065,220.463,220.889,221.325,221.765,222.211,222.661,223.122,223.606,224.124,224.647,225.176,225.709,226.249,226.798,227.392,227.999,228.626,229.258,229.897,230.563,231.268,231.98,232.698,233.422,234.177,235.006,235.841,236.683,237.532,238.401,239.345,240.297,241.272,242.267,243.325,244.434,245.549,246.673,247.839,249.099,250.394,251.702,253.064,254.539,256.019,257.506,259.114,239.586,238.498,237.423,236.361,235.313,234.278,233.257,232.249,231.255,230.274,229.307,228.353,227.412,226.485,225.571,224.671,223.784,222.911,222.051,221.205,220.371,219.552,218.746,217.953,217.174,216.408,215.655,214.916,214.191,213.478,212.78,212.094,211.423,210.764,210.119,209.488,208.87,208.265,207.674,207.096,206.532,205.981,205.443,204.919,204.409,203.912,203.428,202.958,202.501,202.057,201.627,201.211,200.808,200.418,200.042,199.679,199.33,198.994,198.671,198.362,198.067,197.784,197.516,197.26,197.019,196.79,196.575,196.374,196.185,196.011,195.85,195.702,195.567,195.446,195.339,195.245,195.164,195.097,195.043,195.003,194.976,194.963,194.963,194.976,195.003,195.043,195.097,195.164,195.245,195.339,195.446,195.567,195.702,195.85,196.011,196.185,196.374,196.575,196.79,197.019,197.26,197.516,197.784,198.067,198.362,198.671,198.994,199.33,199.679,200.042,200.418,200.808,201.211,201.627,202.057,202.501,202.958,203.428,203.912,204.409,204.919,205.443,205.981,206.532,207.096,207.674,208.265,208.87,209.488,210.119,210.764,211.423,212.094,212.78,213.478,214.191,214.916,215.655,216.408,217.174,217.953,218.746,219.552,220.371,221.205,222.051,222.911,223.784,224.671,225.571,226.485,227.412,228.353,229.307,230.274,231.255,232.249,233.257,234.278,235.313,236.361,237.423,238.498,239.586,259.114,257.506,256.019,254.539,253.064,251.702,250.394,249.099,247.839,246.673,245.549,244.434,243.325,242.267,241.272,240.297,239.345,238.401,237.532,236.683,235.841,235.006,234.177,233.422,232.698,231.98,231.268,230.563,229.897,229.258,228.626,227.999,227.392,226.798,226.249,225.709,225.176,224.647,224.124,223.606,223.122,222.661,222.211,221.765,221.325,220.889,220.463,220.065,219.672,219.283,218.9,218.532,218.169,217.812,217.481,217.153,216.829,216.508,216.192,215.878,215.568,215.28,215.008,214.738,214.471,214.207,213.947,213.689,213.434,213.184,212.95,212.721,212.501,212.284,212.07,211.858,211.649,211.441,211.239,211.049,210.861,210.675,210.491,210.314,210.141,209.971,209.802,209.636,209.476,209.323,209.172,209.023,208.875,208.729,208.584,208.442,208.307,208.172,208.04,207.917,207.795,207.675,207.556,207.438,207.322,207.207,207.093,206.98,206.869,206.762
207.441,207.558,207.677,207.798,207.919,208.046,208.179,208.313,208.449,208.587,208.732,208.878,209.026,209.176,209.327,209.48,209.646,209.812,209.981,210.152,210.324,210.499,210.681,210.867,211.055,211.25,211.456,211.663,211.873,212.086,212.3,212.518,212.737,212.961,213.202,213.455,213.71,213.968,214.23,214.494,214.761,215.032,215.309,215.605,215.908,216.222,216.54,216.861,217.186,217.515,217.86,218.221,218.585,218.953,219.326,219.717,220.111,220.525,220.958,221.396,221.838,222.285,222.737,223.195,223.697,224.217,224.742,225.273,225.809,226.352,226.936,227.534,228.138,228.753,229.389,230.041,230.743,231.453,232.169,232.891,233.62,234.417,235.242,236.083,236.93,237.786,238.73,239.681,240.639,241.605,242.637,243.747,244.864,245.989,247.149,248.413,249.684,250.963,252.31,253.79,255.277,256.771,258.393,239.535,238.433,237.345,236.27,235.208,234.16,233.126,232.104,231.097,230.102,229.121,228.154,227.2,226.259,225.332,224.419,223.518,222.632,221.758,220.898,220.052,219.219,218.399,217.593,216.8,216.021,215.255,214.502,213.763,213.038,212.326,211.627,210.942,210.27,209.611,208.966,208.335,207.717,207.112,206.521,205.943,205.379,204.828,204.29,203.766,203.256,202.759,202.275,201.805,201.348,200.904,200.474,200.058,199.655,199.265,198.889,198.526,198.177,197.841,197.518,197.209,196.914,196.632,196.363,196.108,195.866,195.637,195.422,195.221,195.033,194.858,194.697,194.549,194.415,194.294,194.186,194.092,194.011,193.944,193.89,193.85,193.823,193.81,193.81,193.823,193.85,193.89,193.944,194.011,194.092,194.186,194.294,194.415,194.549,194.697,194.858,195.033,195.221,195.422,195.637,195.866,196.108,196.363,196.632,196.914,197.209,197.518,197.841,198.177,198.526,198.889,199.265,199.655,200.058,200.474,200.904,201.348,201.805,202.275,202.759,203.256,203.766,204.29,204.828,205.379,205.943,206.521,207.112,207.717,208.335,208.966,209.611,210.27,210.942,211.627,212.326,213.038,213.763,214.502,215.255,216.021,216.8,217.593,218.399,219.219,220.052,220.898,221.758,222.632,223.518,224.419,225.332,226.259,227.2,228.154,229.121,230.102,231.097,232.104,233.126,234.16,235.208,236.27,237.345,238.433,239.535,258.393,256.771,255.277,253.79,252.31,250.963,249.684,248.413,247.149,245.989,244.864,243.747,242.637,241.605,240.639,239.681,238.73,237.786,236.93,236.083,235.242,234.417,233.62,232.891,232.169,231.453,230.743,230.041,229.389,228.753,228.138,227.534,226.936,226.352,225.809,225.273,224.742,224.217,223.697,223.195,222.737,222.285,221.838,221.396,220.958,220.525,220.111,219.717,219.326,218.953,218.585,218.221,217.86,217.515,217.186,216.861,216.54,216.222,215.908,215.605,215.309,215.032,214.761,214.494,214.23,213.968,213.71,213.455,213.202,212.961,212.737,212.518,212.3,212.086,211.873,211.663,211.456,211.25,211.055,210.867,210.681,210.499,210.324,210.152,209.981,209.812,209.646,209.48,209.327,209.176,209.026,208.878,208.732,208.587,208.449,208.313,208.179,208.046,207.919,207.798,207.677,207.558,207.441,207.324,207.209,207.095,206.982,206.872,206.767
207.442,207.56,207.679,207.8,207.922,208.053,208.186,208.32,208.456,208.593,208.735,208.882,209.03,209.18,209.331,209.49,209.655,209.822,209.991,210.162,210.335,210.51,210.687,210.874,211.062,211.264,211.47,211.678,211.888,212.101,212.316,212.534,212.755,212.978,213.222,213.475,213.731,213.99,214.252,214.517,214.785,215.056,215.346,215.643,215.944,216.252,216.571,216.893,217.22,217.553,217.911,218.273,218.638,219.008,219.382,219.762,220.163,220.593,221.028,221.467,221.912,222.361,222.815,223.297,223.798,224.311,224.839,225.372,225.911,226.481,227.076,227.677,228.285,228.898,229.523,230.22,230.927,231.641,232.361,233.088,233.87,234.678,235.493,236.329,237.182,238.113,239.064,240.022,240.988,241.996,243.079,244.175,245.301,246.453,247.721,248.995,250.277,251.607,253.06,254.526,256.026,257.657,239.511,238.395,237.294,236.205,235.13,234.069,233.021,231.986,230.965,229.957,228.963,227.982,227.015,226.061,225.12,224.193,223.279,222.379,221.492,220.619,219.759,218.912,218.079,217.26,216.453,215.661,214.881,214.115,213.363,212.624,211.898,211.186,210.487,209.802,209.13,208.472,207.827,207.195,206.577,205.973,205.382,204.804,204.239,203.689,203.151,202.627,202.116,201.619,201.136,200.665,200.208,199.765,199.335,198.918,198.515,198.126,197.75,197.387,197.037,196.701,196.379,196.07,195.774,195.492,195.223,194.968,194.726,194.498,194.283,194.081,193.893,193.719,193.557,193.409,193.275,193.154,193.047,192.953,192.872,192.805,192.751,192.711,192.684,192.67,192.67,192.684,192.711,192.751,192.805,192.872,192.953,193.047,193.154,193.275,193.409,193.557,193.719,193.893,194.081,194.283,194.498,194.726,194.968,195.223,195.492,195.774,196.07,196.379,196.701,197.037,197.387,197.75,198.126,198.515,198.918,199.335,199.765,200.208,200.665,201.136,201.619,202.116,202.627,203.151,203.689,204.239,204.804,205.382,205.973,206.577,207.195,207.827,208.472,209.13,209.802,210.487,211.186,211.898,212.624,213.363,214.115,214.881,215.661,216.453,217.26,218.079,218.912,219.759,220.619,221.492,222.379,223.279,224.193,225.12,226.061,227.015,227.982,228.963,229.957,230.965,231.986,233.021,234.069,235.13,236.205,237.294,238.395,239.511,257.657,256.026,254.526,253.06,251.607,250.277,248.995,247.721,246.453,245.301,244.175,243.079,241.996,240.988,240.022,239.064,238.113,237.182,236.329,235.493,234.678,233.87,233.088,232.361,231.641,230.927,230.22,229.523,228.898,228.285,227.677,227.076,226.481,225.911,225.372,224.839,224.311,223.798,223.297,222.815,222.361,221.912,221.467,221.028,220.593,220.163,219.762,219.382,219.008,218.638,218.273,217.911,217.553,217.22,216.893,216.571,216.252,215.944,215.643,215.346,215.056,214.785,214.517,214.252,213.99,213.731,213.475,213.222,212.978,212.755,212.534,212.316,212.101,211.888,211.678,211.47,211.264,211.062,210.874,210.687,210.51,210.335,210.162,209.991,209.822,209.655,209.49,209.331,209.18,209.03,208.882,208.735,208.593,208.456,208.32,208.186,208.053,207.922,207.8,207.679,207.56,207.442,207.326,207.211,207.096,206.984,206.877,206.771
207.444,207.562,207.682,207.802,207.928,208.059,208.192,208.327,208.463,208.6,208.74,208.885,209.034,209.184,209.336,209.499,209.665,209.832,210.002,210.173,210.346,210.521,210.699,210.88,211.074,211.278,211.484,211.693,211.903,212.117,212.332,212.551,212.772,213.004,213.246,213.496,213.753,214.012,214.275,214.541,214.809,215.088,215.383,215.681,215.983,216.288,216.603,216.927,217.254,217.604,217.962,218.325,218.692,219.064,219.439,219.819,220.23,220.662,221.099,221.54,221.987,222.438,222.905,223.403,223.906,224.415,224.937,225.474,226.027,226.62,227.219,227.823,228.434,229.051,229.712,230.402,231.114,231.832,232.557,233.322,234.129,234.943,235.764,236.593,237.495,238.445,239.403,240.369,241.363,242.447,243.539,244.638,245.752,247.022,248.3,249.585,250.909,252.368,253.835,255.309,256.911,239.513,238.385,237.269,236.168,235.079,234.004,232.943,231.895,230.86,229.839,228.831,227.837,226.856,225.889,224.935,223.994,223.067,222.153,221.253,220.366,219.493,218.633,217.786,216.953,216.134,215.327,214.535,213.755,212.989,212.237,211.498,210.772,210.06,209.361,208.676,208.004,207.346,206.701,206.069,205.451,204.847,204.256,203.678,203.113,202.563,202.025,201.501,200.99,200.493,200.01,199.539,199.082,198.639,198.209,197.792,197.389,197,196.624,196.261,195.911,195.575,195.253,194.944,194.648,194.366,194.097,193.842,193.6,193.372,193.157,192.955,192.767,192.593,192.431,192.283,192.149,192.028,191.921,191.827,191.746,191.679,191.625,191.585,191.558,191.544,191.544,191.558,191.585,191.625,191.679,191.746,191.827,191.921,192.028,192.149,192.283,192.431,192.593,192.767,192.955,193.157,193.372,193.6,193.842,194.097,194.366,194.648,194.944,195.253,195.575,195.911,196.261,196.624,197,197.389,197.792,198.209,198.639,199.082,199.539,200.01,200.493,200.99,201.501,202.025,202.563,203.113,203.678,204.256,204.847,205.451,206.069,206.701,207.346,208.004,208.676,209.361,210.06,210.772,211.498,212.237,212.989,213.755,214.535,215.327,216.134,216.953,217.786,218.633,219.493,220.366,221.253,222.153,223.067,223.994,224.935,225.889,226.856,227.837,228.831,229.839,230.86,231.895,232.943,234.004,235.079,236.168,237.269,238.385,239.513,256.911,255.309,253.835,252.368,250.909,249.585,248.3,247.022,245.752,244.638,243.539,242.447,241.363,240.369,239.403,238.445,237.495,236.593,235.764,234.943,234.129,233.322,232.557,231.832,231.114,230.402,229.712,229.051,228.434,227.823,227.219,226.62,226.027,225.474,224.937,224.415,223.906,223.403,222.905,222.438,221.987,221.54,221.099,220.662,220.23,219.819,219.439,219.064,218.692,218.325,217.962,217.604,217.254,216.927,216.603,216.288,215.983,215.681,215.383,215.088,214.809,214.541,214.275,214.012,213.753,213.496,213.246,213.004,212.772,212.551,212.332,212.117,211.903,211.693,211.484,211.278,211.074,210.88,210.699,210.521,210.346,210.173,210.002,209.832,209.665,209.499,209.336,209.184,209.034,208.885,208.74,208.6,208.463,208.327,208.192,208.059,207.928,207.802,207.682,207.562,207.444,207.328,207.212,207.098,206.988,206.881,206.775
207.446,207.564,207.684,207.804,207.934,208.065,208.199,208.333,208.47,208.607,208.747,208.889,209.037,209.188,209.344,209.509,209.674,209.842,210.012,210.183,210.357,210.532,210.71,210.89,211.088,211.292,211.498,211.707,211.919,212.132,212.349,212.567,212.79,213.03,213.273,213.518,213.774,214.034,214.298,214.564,214.834,215.125,215.421,215.72,216.022,216.329,216.638,216.96,217.298,217.654,218.014,218.379,218.747,219.12,219.497,219.891,220.307,220.732,221.171,221.614,222.063,222.516,223.01,223.51,224.016,224.528,225.045,225.576,226.165,226.761,227.363,227.971,228.586,229.23,229.913,230.603,231.303,232.026,232.774,233.579,234.391,235.211,236.039,236.914,237.841,238.782,239.747,240.725,241.81,242.903,244.004,245.114,246.35,247.604,248.886,250.201,251.665,253.138,254.618,256.22,239.543,238.401,237.272,236.157,235.055,233.967,232.892,231.83,230.782,229.748,228.726,227.719,226.724,225.743,224.776,223.822,222.881,221.954,221.041,220.14,219.254,218.38,217.52,216.674,215.841,215.021,214.215,213.422,212.643,211.877,211.124,210.385,209.66,208.948,208.249,207.564,206.892,206.233,205.588,204.957,204.339,203.734,203.143,202.565,202.001,201.45,200.912,200.388,199.878,199.381,198.897,198.427,197.97,197.526,197.096,196.68,196.277,195.887,195.511,195.148,194.799,194.463,194.14,193.831,193.536,193.254,192.985,192.73,192.488,192.259,192.044,191.843,191.655,191.48,191.319,191.171,191.037,190.916,190.808,190.714,190.633,190.566,190.513,190.472,190.445,190.432,190.432,190.445,190.472,190.513,190.566,190.633,190.714,190.808,190.916,191.037,191.171,191.319,191.48,191.655,191.843,192.044,192.259,192.488,192.73,192.985,193.254,193.536,193.831,194.14,194.463,194.799,195.148,195.511,195.887,196.277,196.68,197.096,197.526,197.97,198.427,198.897,199.381,199.878,200.388,200.912,201.45,202.001,202.565,203.143,203.734,204.339,204.957,205.588,206.233,206.892,207.564,208.249,208.948,209.66,210.385,211.124,211.877,212.643,213.422,214.215,215.021,215.841,216.674,217.52,218.38,219.254,220.14,221.041,221.954,222.881,223.822,224.776,225.743,226.724,227.719,228.726,229.748,230.782,231.83,232.892,233.967,235.055,236.157,237.272,238.401,239.543,256.22,254.618,253.138,251.665,250.201,248.886,247.604,246.35,245.114,244.004,242.903,241.81,240.725,239.747,238.782,237.841,236.914,236.039,235.211,234.391,233.579,232.774,232.026,231.303,230.603,229.913,229.23,228.586,227.971,227.363,226.761,226.165,225.576,225.045,224.528,224.016,223.51,223.01,222.516,222.063,221.614,221.171,220.732,220.307,219.891,219.497,219.12,218.747,218.379,218.014,217.654,217.298,216.96,216.638,216.329,216.022,215.72,215.421,215.125,214.834,214.564,214.298,214.034,213.774,213.518,213.273,213.03,212.79,212.567,212.349,212.132,211.919,211.707,211.498,211.292,211.088,210.89,210.71,210.532,210.357,210.183,210.012,209.842,209.674,209.509,209.344,209.188,209.037,208.889,208.747,208.607,208.47,208.333,208.199,208.065,207.934,207.804,207.684,207.564,207.446,207.329,207.214,207.101,206.992,206.885,206.779
207.448,207.566,207.685,207.809,207.939,208.071,208.205,208.34,208.476,208.614,208.754,208.895,209.041,209.191,209.353,209.518,209.684,209.852,210.022,210.194,210.367,210.543,210.721,210.907,211.102,211.306,211.513,211.722,211.934,212.148,212.365,212.584,212.816,213.057,213.3,213.546,213.796,214.057,214.321,214.588,214.868,215.162,215.458,215.758,216.062,216.369,216.68,216.995,217.347,217.705,218.067,218.432,218.802,219.177,219.557,219.97,220.388,220.81,221.243,221.689,222.14,222.618,223.116,223.619,224.128,224.642,225.163,225.718,226.304,226.904,227.509,228.121,228.747,229.428,230.116,230.811,231.512,232.224,233.028,233.839,234.657,235.484,236.341,237.267,238.201,239.144,240.096,241.168,242.263,243.365,244.476,245.697,246.954,248.22,249.496,250.951,252.429,253.916,255.513,239.599,238.444,237.302,236.173,235.058,233.956,232.868,231.793,230.731,229.683,228.648,227.627,226.62,225.625,224.644,223.677,222.723,221.782,220.855,219.942,219.041,218.154,217.281,216.421,215.575,214.742,213.922,213.116,212.323,211.544,210.778,210.025,209.286,208.561,207.849,207.15,206.465,205.793,205.134,204.489,203.858,203.24,202.635,202.044,201.466,200.902,200.351,199.813,199.289,198.779,198.282,197.798,197.328,196.871,196.427,195.997,195.581,195.178,194.788,194.412,194.049,193.7,193.364,193.041,192.732,192.437,192.154,191.886,191.63,191.389,191.16,190.945,190.744,190.556,190.381,190.22,190.072,189.937,189.816,189.709,189.615,189.534,189.467,189.413,189.373,189.346,189.333,189.333,189.346,189.373,189.413,189.467,189.534,189.615,189.709,189.816,189.937,190.072,190.22,190.381,190.556,190.744,190.945,191.16,191.389,191.63,191.886,192.154,192.437,192.732,193.041,193.364,193.7,194.049,194.412,194.788,195.178,195.581,195.997,196.427,196.871,197.328,197.798,198.282,198.779,199.289,199.813,200.351,200.902,201.466,202.044,202.635,203.24,203.858,204.489,205.134,205.793,206.465,207.15,207.849,208.561,209.286,210.025,210.778,211.544,212.323,213.116,213.922,214.742,215.575,216.421,217.281,218.154,219.041,219.942,220.855,221.782,222.723,223.677,224.644,225.625,226.62,227.627,228.648,229.683,230.731,231.793,232.868,233.956,235.058,236.173,237.302,238.444,239.599,255.513,253.916,252.429,250.951,249.496,248.22,246.954,245.697,244.476,243.365,242.263,241.168,240.096,239.144,238.201,237.267,236.341,235.484,234.657,233.839,233.028,232.224,231.512,230.811,230.116,229.428,228.747,228.121,227.509,226.904,226.304,225.718,225.163,224.642,224.128,223.619,223.116,222.618,222.14,221.689,221.243,220.81,220.388,219.97,219.557,219.177,218.802,218.432,218.067,217.705,217.347,216.995,216.68,216.369,216.062,215.758,215.458,215.162,214.868,214.588,214.321,214.057,213.796,213.546,213.3,213.057,212.816,212.584,212.365,212.148,211.934,211.722,211.513,211.306,211.102,210.907,210.721,210.543,210.367,210.194,210.022,209.852,209.684,209.518,209.353,209.191,209.041,208.895,208.754,208.614,208.476,208.34,208.205,208.071,207.939,207.809,207.685,207.566,207.448,207.331,207.215,207.105,206.996,206.889,206.783
207.449,207.568,207.687,207.815,207.945,208.077,208.211,208.346,208.483,208.621,208.761,208.902,209.045,209.199,209.362,209.527,209.693,209.861,210.032,210.204,210.378,210.554,210.733,210.925,211.121,211.319,211.527,211.737,211.949,212.164,212.381,212.603,212.842,213.083,213.327,213.574,213.824,214.079,214.344,214.613,214.904,215.198,215.496,215.797,216.102,216.411,216.723,217.053,217.397,217.756,218.119,218.487,218.858,219.234,219.635,220.05,220.47,220.894,221.324,221.765,222.227,222.723,223.223,223.729,224.241,224.758,225.297,225.872,226.453,227.048,227.657,228.274,228.944,229.629,230.322,231.021,231.728,232.495,233.285,234.102,234.927,235.764,236.689,237.623,238.565,239.516,240.546,241.619,242.72,243.832,245.036,246.296,247.565,248.842,250.273,251.731,253.2,254.787,239.683,238.514,237.358,236.216,235.087,233.972,232.87,231.782,230.707,229.645,228.597,227.563,226.542,225.534,224.54,223.559,222.591,221.637,220.697,219.77,218.856,217.956,217.069,216.195,215.335,214.489,213.656,212.836,212.03,211.237,210.458,209.692,208.94,208.201,207.475,206.763,206.064,205.379,204.707,204.049,203.404,202.772,202.154,201.549,200.958,200.38,199.816,199.265,198.728,198.204,197.693,197.196,196.712,196.242,195.785,195.342,194.912,194.495,194.092,193.702,193.326,192.963,192.614,192.278,191.956,191.647,191.351,191.069,190.8,190.545,190.303,190.074,189.859,189.658,189.47,189.295,189.134,188.986,188.852,188.731,188.623,188.529,188.449,188.381,188.328,188.287,188.261,188.247,188.247,188.261,188.287,188.328,188.381,188.449,188.529,188.623,188.731,188.852,188.986,189.134,189.295,189.47,189.658,189.859,190.074,190.303,190.545,190.8,191.069,191.351,191.647,191.956,192.278,192.614,192.963,193.326,193.702,194.092,194.495,194.912,195.342,195.785,196.242,196.712,197.196,197.693,198.204,198.728,199.265,199.816,200.38,200.958,201.549,202.154,202.772,203.404,204.049,204.707,205.379,206.064,206.763,207.475,208.201,208.94,209.692,210.458,211.237,212.03,212.836,213.656,214.489,215.335,216.195,217.069,217.956,218.856,219.77,220.697,221.637,222.591,223.559,224.54,225.534,226.542,227.563,228.597,229.645,230.707,231.782,232.87,233.972,235.087,236.216,237.358,238.514,239.683,254.787,253.2,251.731,250.273,248.842,247.565,246.296,245.036,243.832,242.72,241.619,240.546,239.516,238.565,237.623,236.689,235.764,234.927,234.102,233.285,232.495,231.728,231.021,230.322,229.629,228.944,228.274,227.657,227.048,226.453,225.872,225.297,224.758,224.241,223.729,223.223,222.723,222.227,221.765,221.324,220.894,220.47,220.05,219.635,219.234,218.858,218.487,218.119,217.756,217.397,217.053,216.723,216.411,216.102,215.797,215.496,215.198,214.904,214.613,214.344,214.079,213.824,213.574,213.327,213.083,212.842,212.603,212.381,212.164,211.949,211.737,211.527,211.319,211.121,210.925,210.733,210.554,210.378,210.204,210.032,209.861,209.693,209.527,209.362,209.199,209.045,208.902,208.761,208.621,208.483,208.346,208.211,208.077,207.945,207.815,207.687,207.568,207.449,207.332,207.219,207.109,207,206.893,206.787
207.451,207.569,207.69,207.82,207.951,208.083,208.217,208.352,208.489,208.628,208.768,208.909,209.053,209.208,209.371,209.536,209.702,209.871,210.042,210.214,210.389,210.565,210.749,210.943,211.139,211.338,211.541,211.751,211.964,212.18,212.398,212.628,212.868,213.11,213.355,213.602,213.853,214.107,214.368,214.648,214.94,215.236,215.534,215.837,216.143,216.452,216.769,217.111,217.456,217.808,218.173,218.542,218.915,219.3,219.713,220.13,220.552,220.979,221.411,221.848,222.33,222.828,223.331,223.84,224.355,224.876,225.448,226.026,226.611,227.202,227.808,228.458,229.142,229.832,230.529,231.234,231.98,232.769,233.566,234.371,235.2,236.108,237.042,237.983,238.933,239.943,241.016,242.098,243.19,244.365,245.628,246.9,248.181,249.594,251.057,252.529,254.075,239.793,238.61,237.441,236.286,235.144,234.015,232.9,231.798,230.71,229.635,228.573,227.525,226.491,225.469,224.462,223.467,222.486,221.519,220.565,219.624,218.697,217.784,216.883,215.997,215.123,214.263,213.417,212.584,211.764,210.958,210.165,209.386,208.62,207.867,207.128,206.403,205.691,204.992,204.307,203.635,202.976,202.331,201.7,201.082,200.477,199.886,199.308,198.744,198.193,197.655,197.131,196.621,196.124,195.64,195.17,194.713,194.269,193.839,193.423,193.02,192.63,192.254,191.891,191.542,191.206,190.883,190.574,190.279,189.997,189.728,189.473,189.231,189.002,188.787,188.586,188.398,188.223,188.062,187.914,187.779,187.659,187.551,187.457,187.376,187.309,187.255,187.215,187.188,187.175,187.175,187.188,187.215,187.255,187.309,187.376,187.457,187.551,187.659,187.779,187.914,188.062,188.223,188.398,188.586,188.787,189.002,189.231,189.473,189.728,189.997,190.279,190.574,190.883,191.206,191.542,191.891,192.254,192.63,193.02,193.423,193.839,194.269,194.713,195.17,195.64,196.124,196.621,197.131,197.655,198.193,198.744,199.308,199.886,200.477,201.082,201.7,202.331,202.976,203.635,204.307,204.992,205.691,206.403,207.128,207.867,208.62,209.386,210.165,210.958,211.764,212.584,213.417,214.263,215.123,215.997,216.883,217.784,218.697,219.624,220.565,221.519,222.486,223.467,224.462,225.469,226.491,227.525,228.573,229.635,230.71,231.798,232.9,234.015,235.144,236.286,237.441,238.61,239.793,254.075,252.529,251.057,249.594,248.181,246.9,245.628,244.365,243.19,242.098,241.016,239.943,238.933,237.983,237.042,236.108,235.2,234.371,233.566,232.769,231.98,231.234,230.529,229.832,229.142,228.458,227.808,227.202,226.611,226.026,225.448,224.876,224.355,223.84,223.331,222.828,222.33,221.848,221.411,220.979,220.552,220.13,219.713,219.3,218.915,218.542,218.173,217.808,217.456,217.111,216.769,216.452,216.143,215.837,215.534,215.236,214.94,214.648,214.368,214.107,213.853,213.602,213.355,213.11,212.868,212.628,212.398,212.18,211.964,211.751,211.541,211.338,211.139,210.943,210.749,210.565,210.389,210.214,210.042,209.871,209.702,209.536,209.371,209.208,209.053,208.909,208.768,208.628,208.489,208.352,208.217,208.083,207.951,207.82,207.69,207.569,207.451,207.334,207.223,207.113,207.004,206.897,206.791
207.452,207.57,207.696,207.825,207.956,208.089,208.223,208.358,208.495,208.634,208.774,208.916,209.063,209.219,209.379,209.544,209.712,209.88,210.051,210.224,210.399,210.576,210.767,210.961,211.158,211.357,211.558,211.766,211.98,212.195,212.416,212.654,212.894,213.136,213.382,213.631,213.882,214.137,214.397,214.683,214.976,215.273,215.573,215.876,216.183,216.494,216.826,217.169,217.516,217.868,218.226,218.597,218.972,219.377,219.792,220.211,220.635,221.064,221.498,221.957,222.439,222.934,223.441,223.953,224.47,225.024,225.6,226.182,226.771,227.366,227.981,228.653,229.341,230.037,230.739,231.463,232.251,233.046,233.85,234.661,235.528,236.456,237.397,238.347,239.332,240.407,241.49,242.582,243.72,244.963,246.225,247.509,248.9,250.369,251.846,253.372,239.93,238.734,237.552,236.383,235.227,234.085,232.956,231.841,230.739,229.651,228.576,227.514,226.466,225.432,224.411,223.403,222.408,221.428,220.46,219.506,218.566,217.638,216.725,215.825,214.938,214.064,213.204,212.358,211.525,210.705,209.899,209.106,208.327,207.561,206.809,206.069,205.344,204.632,203.933,203.248,202.576,201.918,201.273,200.641,200.023,199.418,198.827,198.249,197.685,197.134,196.597,196.073,195.562,195.065,194.581,194.111,193.654,193.211,192.781,192.364,191.961,191.571,191.195,190.832,190.483,190.147,189.825,189.516,189.22,188.938,188.669,188.414,188.172,187.943,187.728,187.527,187.339,187.164,187.003,186.855,186.721,186.6,186.492,186.398,186.318,186.25,186.197,186.156,186.129,186.116,186.116,186.129,186.156,186.197,186.25,186.318,186.398,186.492,186.6,186.721,186.855,187.003,187.164,187.339,187.527,187.728,187.943,188.172,188.414,188.669,188.938,189.22,189.516,189.825,190.147,190.483,190.832,191.195,191.571,191.961,192.364,192.781,193.211,193.654,194.111,194.581,195.065,195.562,196.073,196.597,197.134,197.685,198.249,198.827,199.418,200.023,200.641,201.273,201.918,202.576,203.248,203.933,204.632,205.344,206.069,206.809,207.561,208.327,209.106,209.899,210.705,211.525,212.358,213.204,214.064,214.938,215.825,216.725,217.638,218.566,219.506,220.46,221.428,222.408,223.403,224.411,225.432,226.466,227.514,228.576,229.651,230.739,231.841,232.956,234.085,235.227,236.383,237.552,238.734,239.93,253.372,251.846,250.369,248.9,247.509,246.225,244.963,243.72,242.582,241.49,240.407,239.332,238.347,237.397,236.456,235.528,234.661,233.85,233.046,232.251,231.463,230.739,230.037,229.341,228.653,227.981,227.366,226.771,226.182,225.6,225.024,224.47,223.953,223.441,222.934,222.439,221.957,221.498,221.064,220.635,220.211,219.792,219.377,218.972,218.597,218.226,217.868,217.516,217.169,216.826,216.494,216.183,215.876,215.573,215.273,214.976,214.683,214.397,214.137,213.882,213.631,213.382,213.136,212.894,212.654,212.416,212.195,211.98,211.766,211.558,211.357,211.158,210.961,210.767,210.576,210.399,210.224,210.051,209.88,209.712,209.544,209.379,209.219,209.063,208.916,208.774,208.634,208.495,208.358,208.223,208.089,207.956,207.825,207.696,207.57,207.452,207.338,207.227,207.117,207.008,206.9,206.794
207.455,207.572,207.701,207.83,207.962,208.094,208.229,208.364,208.502,208.641,208.781,208.923,209.075,209.231,209.389,209.553,209.721,209.89,210.061,210.234,210.41,210.592,210.784,210.979,211.176,211.376,211.578,211.782,211.995,212.211,212.441,212.679,212.92,213.163,213.409,213.659,213.911,214.167,214.438,214.721,215.013,215.31,215.611,215.916,216.224,216.543,216.883,217.228,217.577,217.93,218.287,218.653,219.043,219.454,219.871,220.292,220.719,221.15,221.591,222.071,222.556,223.047,223.551,224.066,224.6,225.174,225.754,226.34,226.932,227.532,228.189,228.86,229.543,230.243,230.951,231.73,232.524,233.326,234.136,234.979,235.892,236.815,237.756,238.716,239.79,240.874,241.968,243.079,244.325,245.581,246.846,248.193,249.666,251.149,252.65,240.094,238.885,237.689,236.506,235.337,234.182,233.04,231.911,230.796,229.694,228.605,227.531,226.469,225.421,224.386,223.365,222.357,221.363,220.382,219.415,218.461,217.52,216.593,215.679,214.779,213.892,213.019,212.159,211.312,210.479,209.66,208.854,208.061,207.281,206.516,205.763,205.024,204.299,203.586,202.888,202.202,201.531,200.872,200.227,199.596,198.978,198.373,197.782,197.204,196.64,196.089,195.551,195.027,194.517,194.019,193.536,193.065,192.609,192.165,191.735,191.319,190.916,190.526,190.15,189.787,189.438,189.102,188.779,188.47,188.175,187.892,187.624,187.368,187.126,186.898,186.683,186.482,186.293,186.119,185.957,185.81,185.675,185.554,185.447,185.353,185.272,185.205,185.151,185.111,185.084,185.071,185.071,185.084,185.111,185.151,185.205,185.272,185.353,185.447,185.554,185.675,185.81,185.957,186.119,186.293,186.482,186.683,186.898,187.126,187.368,187.624,187.892,188.175,188.47,188.779,189.102,189.438,189.787,190.15,190.526,190.916,191.319,191.735,192.165,192.609,193.065,193.536,194.019,194.517,195.027,195.551,196.089,196.64,197.204,197.782,198.373,198.978,199.596,200.227,200.872,201.531,202.202,202.888,203.586,204.299,205.024,205.763,206.516,207.281,208.061,208.854,209.66,210.479,211.312,212.159,213.019,213.892,214.779,215.679,216.593,217.52,218.461,219.415,220.382,221.363,222.357,223.365,224.386,225.421,226.469,227.531,228.605,229.694,230.796,231.911,233.04,234.182,235.337,236.506,237.689,238.885,240.094,252.65,251.149,249.666,248.193,246.846,245.581,244.325,243.079,241.968,240.874,239.79,238.716,237.756,236.815,235.892,234.979,234.136,233.326,232.524,231.73,230.951,230.243,229.543,228.86,228.189,227.532,226.932,226.34,225.754,225.174,224.6,224.066,223.551,223.047,222.556,222.071,221.591,221.15,220.719,220.292,219.871,219.454,219.043,218.653,218.287,217.93,217.577,217.228,216.883,216.543,216.224,215.916,215.611,215.31,215.013,214.721,214.438,214.167,213.911,213.659,213.409,213.163,212.92,212.679,212.441,212.211,211.995,211.782,211.578,211.376,211.176,210.979,210.784,210.592,210.41,210.234,210.061,209.89,209.721,209.553,209.389,209.231,209.075,208.923,208.781,208.641,208.502,208.364,208.229,208.094,207.962,207.83,207.701,207.572,207.455,207.342,207.231,207.121,207.012,206.904,206.797
207.459,207.577,207.705,207.835,207.967,208.1,208.234,208.37,208.508,208.647,208.788,208.932,209.087,209.243,209.402,209.562,209.729,209.899,210.071,210.244,210.42,210.609,210.802,210.997,211.195,211.395,211.597,211.802,212.01,212.229,212.465,212.704,212.945,213.19,213.437,213.687,213.941,214.2,214.48,214.763,215.05,215.348,215.65,215.956,216.265,216.599,216.941,217.287,217.637,217.992,218.351,218.715,219.118,219.532,219.951,220.375,220.803,221.237,221.703,222.186,222.674,223.167,223.667,224.18,224.747,225.325,225.908,226.498,227.095,227.731,228.399,229.075,229.757,230.452,231.207,231.999,232.8,233.608,234.425,235.338,236.259,237.19,238.129,239.167,240.252,241.346,242.449,243.676,244.934,246.202,247.517,248.974,250.44,251.935,240.285,239.062,237.853,236.657,235.474,234.305,233.15,232.008,230.879,229.764,228.662,227.574,226.499,225.437,224.389,223.354,222.333,221.325,220.331,219.35,218.383,217.429,216.488,215.561,214.647,213.747,212.86,211.987,211.127,210.281,209.447,208.628,207.822,207.029,206.25,205.484,204.731,203.992,203.267,202.554,201.856,201.17,200.499,199.84,199.195,198.564,197.946,197.341,196.75,196.172,195.608,195.057,194.519,193.995,193.485,192.988,192.504,192.034,191.577,191.133,190.703,190.287,189.884,189.494,189.118,188.755,188.406,188.07,187.747,187.438,187.143,186.86,186.592,186.336,186.095,185.866,185.651,185.45,185.261,185.087,184.926,184.778,184.643,184.522,184.415,184.321,184.24,184.173,184.119,184.079,184.052,184.039,184.039,184.052,184.079,184.119,184.173,184.24,184.321,184.415,184.522,184.643,184.778,184.926,185.087,185.261,185.45,185.651,185.866,186.095,186.336,186.592,186.86,187.143,187.438,187.747,188.07,188.406,188.755,189.118,189.494,189.884,190.287,190.703,191.133,191.577,192.034,192.504,192.988,193.485,193.995,194.519,195.057,195.608,196.172,196.75,197.341,197.946,198.564,199.195,199.84,200.499,201.17,201.856,202.554,203.267,203.992,204.731,205.484,206.25,207.029,207.822,208.628,209.447,210.281,211.127,211.987,212.86,213.747,214.647,215.561,216.488,217.429,218.383,219.35,220.331,221.325,222.333,223.354,224.389,225.437,226.499,227.574,228.662,229.764,230.879,232.008,233.15,234.305,235.474,236.657,237.853,239.062,240.285,251.935,250.44,248.974,247.517,246.202,244.934,243.676,242.449,241.346,240.252,239.167,238.129,237.19,236.259,235.338,234.425,233.608,232.8,231.999,231.207,230.452,229.757,229.075,228.399,227.731,227.095,226.498,225.908,225.325,224.747,224.18,223.667,223.167,222.674,222.186,221.703,221.237,220.803,220.375,219.951,219.532,219.118,218.715,218.351,217.992,217.637,217.287,216.941,216.599,216.265,215.956,215.65,215.348,215.05,214.763,214.48,214.2,213.941,213.687,213.437,213.19,212.945,212.704,212.465,212.229,212.01,211.802,211.597,211.395,211.195,210.997,210.802,210.609,210.42,210.244,210.071,209.899,209.729,209.562,209.402,209.243,209.087,208.932,208.788,208.647,208.508,208.37,208.234,208.1,207.967,207.835,207.705,207.577,207.459,207.346,207.235,207.124,207.015,206.907,206.801
207.463,207.585,207.71,207.84,207.972,208.105,208.24,208.376,208.514,208.653,208.794,208.944,209.099,209.255,209.414,209.574,209.738,209.908,210.08,210.254,210.434,210.625,210.819,211.015,211.213,211.414,211.616,211.822,212.03,212.253,212.49,212.729,212.971,213.216,213.464,213.715,213.97,214.241,214.521,214.806,215.093,215.385,215.689,215.996,216.315,216.655,216.998,217.346,217.698,218.055,218.416,218.798,219.199,219.61,220.031,220.457,220.888,221.336,221.816,222.301,222.792,223.289,223.792,224.326,224.895,225.476,226.064,226.658,227.271,227.937,228.61,229.291,229.979,230.694,231.472,232.27,233.077,233.892,234.778,235.699,236.628,237.567,238.569,239.636,240.716,241.82,243.016,244.276,245.547,246.829,248.29,249.761,251.243,240.502,239.266,238.043,236.834,235.638,234.456,233.287,232.131,230.989,229.86,228.745,227.643,226.555,225.48,224.419,223.371,222.336,221.315,220.307,219.313,218.332,217.364,216.41,215.47,214.543,213.629,212.729,211.842,210.968,210.109,209.262,208.429,207.609,206.803,206.01,205.231,204.465,203.713,202.974,202.248,201.536,200.837,200.152,199.48,198.822,198.177,197.545,196.927,196.323,195.731,195.154,194.589,194.038,193.501,192.977,192.466,191.969,191.485,191.015,190.558,190.115,189.685,189.268,188.865,188.476,188.099,187.736,187.387,187.051,186.729,186.42,186.124,185.842,185.573,185.318,185.076,184.848,184.633,184.431,184.243,184.068,183.907,183.759,183.625,183.504,183.396,183.302,183.222,183.155,183.101,183.061,183.034,183.02,183.02,183.034,183.061,183.101,183.155,183.222,183.302,183.396,183.504,183.625,183.759,183.907,184.068,184.243,184.431,184.633,184.848,185.076,185.318,185.573,185.842,186.124,186.42,186.729,187.051,187.387,187.736,188.099,188.476,188.865,189.268,189.685,190.115,190.558,191.015,191.485,191.969,192.466,192.977,193.501,194.038,194.589,195.154,195.731,196.323,196.927,197.545,198.177,198.822,199.48,200.152,200.837,201.536,202.248,202.974,203.713,204.465,205.231,206.01,206.803,207.609,208.429,209.262,210.109,210.968,211.842,212.729,213.629,214.543,215.47,216.41,217.364,218.332,219.313,220.307,221.315,222.336,223.371,224.419,225.48,226.555,227.643,228.745,229.86,230.989,232.131,233.287,234.456,235.638,236.834,238.043,239.266,240.502,251.243,249.761,248.29,246.829,245.547,244.276,243.016,241.82,240.716,239.636,238.569,237.567,236.628,235.699,234.778,233.892,233.077,232.27,231.472,230.694,229.979,229.291,228.61,227.937,227.271,226.658,226.064,225.476,224.895,224.326,223.792,223.289,222.792,222.301,221.816,221.336,220.888,220.457,220.031,219.61,219.199,218.798,218.416,218.055,217.698,217.346,216.998,216.655,216.315,215.996,215.689,215.385,215.093,214.806,214.521,214.241,213.97,213.715,213.464,213.216,212.971,212.729,212.49,212.253,212.03,211.822,211.616,211.414,211.213,211.015,210.819,210.625,210.434,210.254,210.08,209.908,209.738,209.574,209.414,209.255,209.099,208.944,208.794,208.653,208.514,208.376,208.24,208.105,207.972,207.84,207.71,207.585,207.463,207.35,207.238,207.128,207.019,206.911,206.804
207.469,207.592,207.717,207.845,207.977,208.11,208.245,208.381,208.519,208.659,208.801,208.955,209.11,209.267,209.426,209.587,209.749,209.917,210.09,210.264,210.45,210.642,210.836,211.032,211.231,211.432,211.636,211.842,212.052,212.28,212.514,212.754,212.997,213.243,213.492,213.744,214.002,214.281,214.563,214.848,215.137,215.43,215.727,216.036,216.37,216.711,217.056,217.406,217.759,218.118,218.484,218.882,219.285,219.693,220.112,220.54,220.974,221.446,221.929,222.417,222.911,223.411,223.924,224.483,225.049,225.629,226.221,226.819,227.473,228.144,228.822,229.508,230.202,230.97,231.752,232.543,233.356,234.213,235.133,236.062,237,237.97,239.038,240.115,241.202,242.347,243.607,244.88,246.163,247.59,249.066,250.553,252.156,239.497,238.261,237.038,235.829,234.633,233.451,232.282,231.126,229.984,228.855,227.74,226.638,225.55,224.475,223.414,222.365,221.331,220.31,219.302,218.308,217.327,216.359,215.405,214.465,213.538,212.624,211.724,210.837,209.963,209.103,208.257,207.424,206.604,205.798,205.005,204.226,203.46,202.708,201.969,201.243,200.531,199.832,199.147,198.475,197.817,197.172,196.54,195.922,195.317,194.726,194.148,193.584,193.033,192.496,191.972,191.461,190.964,190.48,190.01,189.553,189.11,188.68,188.263,187.86,187.47,187.094,186.731,186.382,186.046,185.724,185.415,185.119,184.837,184.568,184.313,184.071,183.843,183.628,183.426,183.238,183.063,182.902,182.754,182.62,182.499,182.391,182.297,182.217,182.15,182.096,182.055,182.029,182.015,182.015,182.029,182.055,182.096,182.15,182.217,182.297,182.391,182.499,182.62,182.754,182.902,183.063,183.238,183.426,183.628,183.843,184.071,184.313,184.568,184.837,185.119,185.415,185.724,186.046,186.382,186.731,187.094,187.47,187.86,188.263,188.68,189.11,189.553,190.01,190.48,190.964,191.461,191.972,192.496,193.033,193.584,194.148,194.726,195.317,195.922,196.54,197.172,197.817,198.475,199.147,199.832,200.531,201.243,201.969,202.708,203.46,204.226,205.005,205.798,206.604,207.424,208.257,209.103,209.963,210.837,211.724,212.624,213.538,214.465,215.405,216.359,217.327,218.308,219.302,220.31,221.331,222.365,223.414,224.475,225.55,226.638,227.74,228.855,229.984,231.126,232.282,233.451,234.633,235.829,237.038,238.261,239.497,252.156,250.553,249.066,247.59,246.163,244.88,243.607,242.347,241.202,240.115,239.038,237.97,237,236.062,235.133,234.213,233.356,232.543,231.752,230.97,230.202,229.508,228.822,228.144,227.473,226.819,226.221,225.629,225.049,224.483,223.924,223.411,222.911,222.417,221.929,221.446,220.974,220.54,220.112,219.693,219.285,218.882,218.484,218.118,217.759,217.406,217.056,216.711,216.37,216.036,215.727,215.43,215.137,214.848,214.563,214.281,214.002,213.744,213.492,213.243,212.997,212.754,212.514,212.28,212.052,211.842,211.636,211.432,211.231,211.032,210.836,210.642,210.45,210.264,210.09,209.917,209.749,209.587,209.426,209.267,209.11,208.955,208.801,208.659,208.519,208.381,208.245,208.11,207.977,207.845,207.717,207.592,207.469,207.354,207.242,207.131,207.022,206.914,206.807
207.476,207.6,207.724,207.85,207.981,208.115,208.25,208.387,208.525,208.665,208.812,208.966,209.121,209.279,209.438,209.599,209.762,209.927,210.099,210.276,210.466,210.658,210.853,211.05,211.249,211.451,211.655,211.862,212.081,212.309,212.54,212.779,213.023,213.269,213.519,213.772,214.042,214.321,214.604,214.891,215.181,215.475,215.772,216.085,216.424,216.767,217.114,217.465,217.821,218.181,218.566,218.966,219.371,219.781,220.196,220.624,221.077,221.557,222.043,222.534,223.031,223.534,224.079,224.642,225.212,225.788,226.378,227.008,227.676,228.352,229.036,229.727,230.468,231.248,232.036,232.833,233.645,234.562,235.49,236.427,237.374,238.431,239.509,240.596,241.704,242.95,244.207,245.487,246.875,248.355,249.846,251.408,239.755,238.506,237.269,236.047,234.837,233.642,232.459,231.29,230.135,228.992,227.864,226.749,225.647,224.558,223.483,222.422,221.374,220.339,219.318,218.31,217.316,216.335,215.368,214.414,213.473,212.546,211.632,210.732,209.845,208.972,208.112,207.265,206.432,205.613,204.806,204.014,203.234,202.468,201.716,200.977,200.251,199.539,198.841,198.155,197.483,196.825,196.18,195.549,194.93,194.326,193.735,193.157,192.593,192.042,191.504,190.98,190.47,189.972,189.489,189.018,188.562,188.118,187.688,187.272,186.868,186.479,186.103,185.74,185.39,185.055,184.732,184.423,184.127,183.845,183.577,183.321,183.079,182.851,182.636,182.434,182.246,182.072,181.91,181.763,181.628,181.507,181.4,181.306,181.225,181.158,181.104,181.064,181.037,181.024,181.024,181.037,181.064,181.104,181.158,181.225,181.306,181.4,181.507,181.628,181.763,181.91,182.072,182.246,182.434,182.636,182.851,183.079,183.321,183.577,183.845,184.127,184.423,184.732,185.055,185.39,185.74,186.103,186.479,186.868,187.272,187.688,188.118,188.562,189.018,189.489,189.972,190.47,190.98,191.504,192.042,192.593,193.157,193.735,194.326,194.93,195.549,196.18,196.825,197.483,198.155,198.841,199.539,200.251,200.977,201.716,202.468,203.234,204.014,204.806,205.613,206.432,207.265,208.112,208.972,209.845,210.732,211.632,212.546,213.473,214.414,215.368,216.335,217.316,218.31,219.318,220.339,221.374,222.422,223.483,224.558,225.647,226.749,227.864,228.992,230.135,231.29,232.459,233.642,234.837,236.047,237.269,238.506,239.755,251.408,249.846,248.355,246.875,245.487,244.207,242.95,241.704,240.596,239.509,238.431,237.374,236.427,235.49,234.562,233.645,232.833,232.036,231.248,230.468,229.727,229.036,228.352,227.676,227.008,226.378,225.788,225.212,224.642,224.079,223.534,223.031,222.534,222.043,221.557,221.077,220.624,220.196,219.781,219.371,218.966,218.566,218.181,217.821,217.465,217.114,216.767,216.424,216.085,215.772,215.475,215.181,214.891,214.604,214.321,214.042,213.772,213.519,213.269,213.023,212.779,212.54,212.309,212.081,211.862,211.655,211.451,211.249,211.05,210.853,210.658,210.466,210.276,210.099,209.927,209.762,209.599,209.438,209.279,209.121,208.966,208.812,208.665,208.525,208.387,208.25,208.115,207.981,207.85,207.724,207.6,207.476,207.357,207.245,207.134,207.025,206.917,206.809
207.483,207.607,207.731,207.858,207.986,208.12,208.255,208.392,208.531,208.671,208.822,208.976,209.132,209.29,209.45,209.611,209.775,209.94,210.108,210.291,210.482,210.675,210.87,211.067,211.267,211.469,211.674,211.882,212.109,212.338,212.57,212.804,213.048,213.296,213.547,213.803,214.081,214.362,214.646,214.933,215.225,215.52,215.819,216.143,216.479,216.823,217.172,217.525,217.882,218.25,218.648,219.05,219.458,219.87,220.288,220.711,221.185,221.668,222.156,222.651,223.151,223.673,224.234,224.801,225.375,225.956,226.547,227.207,227.88,228.562,229.251,229.963,230.741,231.527,232.322,233.126,234.004,234.916,235.848,236.794,237.817,238.894,239.981,241.08,242.298,243.556,244.826,246.155,247.627,249.122,250.637,240.04,238.777,237.527,236.291,235.069,233.859,232.663,231.481,230.312,229.156,228.014,226.886,225.77,224.669,223.58,222.505,221.444,220.396,219.361,218.34,217.332,216.338,215.357,214.389,213.435,212.495,211.568,210.654,209.754,208.867,207.994,207.134,206.287,205.454,204.634,203.828,203.035,202.256,201.49,200.738,199.999,199.273,198.561,197.862,197.177,196.505,195.847,195.202,194.57,193.952,193.348,192.756,192.179,191.614,191.063,190.526,190.002,189.491,188.994,188.51,188.04,187.583,187.14,186.71,186.293,185.89,185.501,185.124,184.762,184.412,184.076,183.754,183.445,183.149,182.867,182.598,182.343,182.101,181.873,181.658,181.456,181.268,181.093,180.932,180.784,180.65,180.529,180.422,180.328,180.247,180.18,180.126,180.086,180.059,180.045,180.045,180.059,180.086,180.126,180.18,180.247,180.328,180.422,180.529,180.65,180.784,180.932,181.093,181.268,181.456,181.658,181.873,182.101,182.343,182.598,182.867,183.149,183.445,183.754,184.076,184.412,184.762,185.124,185.501,185.89,186.293,186.71,187.14,187.583,188.04,188.51,188.994,189.491,190.002,190.526,191.063,191.614,192.179,192.756,193.348,193.952,194.57,195.202,195.847,196.505,197.177,197.862,198.561,199.273,199.999,200.738,201.49,202.256,203.035,203.828,204.634,205.454,206.287,207.134,207.994,208.867,209.754,210.654,211.568,212.495,213.435,214.389,215.357,216.338,217.332,218.34,219.361,220.396,221.444,222.505,223.58,224.669,225.77,226.886,228.014,229.156,230.312,231.481,232.663,233.859,235.069,236.291,237.527,238.777,240.04,250.637,249.122,247.627,246.155,244.826,243.556,242.298,241.08,239.981,238.894,237.817,236.794,235.848,234.916,234.004,233.126,232.322,231.527,230.741,229.963,229.251,228.562,227.88,227.207,226.547,225.956,225.375,224.801,224.234,223.673,223.151,222.651,222.156,221.668,221.185,220.711,220.288,219.87,219.458,219.05,218.648,218.25,217.882,217.525,217.172,216.823,216.479,216.143,215.819,215.52,215.225,214.933,214.646,214.362,214.081,213.803,213.547,213.296,213.048,212.804,212.57,212.338,212.109,211.882,211.674,211.469,211.267,211.067,210.87,210.675,210.482,210.291,210.108,209.94,209.775,209.611,209.45,209.29,209.132,208.976,208.822,208.671,208.531,208.392,208.255,208.12,207.986,207.858,207.731,207.607,207.483,207.361,207.248,207.137,207.028,206.919,206.812
207.49,207.614,207.739,207.865,207.993,208.124,208.26,208.397,208.536,208.68,208.832,208.987,209.143,209.301,209.461,209.623,209.787,209.953,210.121,210.306,210.497,210.691,210.886,211.085,211.285,211.488,211.693,211.909,212.137,212.366,212.599,212.835,213.074,213.322,213.574,213.841,214.12,214.402,214.687,214.976,215.269,215.565,215.875,216.204,216.538,216.88,217.23,217.585,217.944,218.33,218.73,219.134,219.544,219.959,220.379,220.827,221.296,221.779,222.271,222.768,223.272,223.825,224.389,224.96,225.538,226.124,226.755,227.414,228.085,228.772,229.466,230.23,231.014,231.807,232.609,233.454,234.365,235.285,236.215,237.194,238.271,239.358,240.456,241.633,242.893,244.164,245.447,246.916,248.398,249.892,240.352,239.075,237.812,236.563,235.326,234.104,232.894,231.699,230.516,229.347,228.192,227.05,225.921,224.806,223.704,222.615,221.54,220.479,219.431,218.396,217.375,216.367,215.373,214.392,213.425,212.471,211.53,210.603,209.689,208.789,207.902,207.029,206.169,205.322,204.489,203.67,202.863,202.071,201.291,200.526,199.773,199.034,198.308,197.596,196.898,196.212,195.541,194.882,194.237,193.606,192.988,192.383,191.792,191.214,190.65,190.099,189.561,189.037,188.527,188.029,187.546,187.075,186.619,186.175,185.745,185.329,184.926,184.536,184.16,183.797,183.448,183.112,182.789,182.48,182.184,181.902,181.634,181.378,181.136,180.908,180.693,180.491,180.303,180.129,179.967,179.82,179.685,179.564,179.457,179.363,179.282,179.215,179.161,179.121,179.094,179.081,179.081,179.094,179.121,179.161,179.215,179.282,179.363,179.457,179.564,179.685,179.82,179.967,180.129,180.303,180.491,180.693,180.908,181.136,181.378,181.634,181.902,182.184,182.48,182.789,183.112,183.448,183.797,184.16,184.536,184.926,185.329,185.745,186.175,186.619,187.075,187.546,188.029,188.527,189.037,189.561,190.099,190.65,191.214,191.792,192.383,192.988,193.606,194.237,194.882,195.541,196.212,196.898,197.596,198.308,199.034,199.773,200.526,201.291,202.071,202.863,203.67,204.489,205.322,206.169,207.029,207.902,208.789,209.689,210.603,211.53,212.471,213.425,214.392,215.373,216.367,217.375,218.396,219.431,220.479,221.54,222.615,223.704,224.806,225.921,227.05,228.192,229.347,230.516,231.699,232.894,234.104,235.326,236.563,237.812,239.075,240.352,249.892,248.398,246.916,245.447,244.164,242.893,241.633,240.456,239.358,238.271,237.194,236.215,235.285,234.365,233.454,232.609,231.807,231.014,230.23,229.466,228.772,228.085,227.414,226.755,226.124,225.538,224.96,224.389,223.825,223.272,222.768,222.271,221.779,221.296,220.827,220.379,219.959,219.544,219.134,218.73,218.33,217.944,217.585,217.23,216.88,216.538,216.204,215.875,215.565,215.269,214.976,214.687,214.402,214.12,213.841,213.574,213.322,213.074,212.835,212.599,212.366,212.137,211.909,211.693,211.488,211.285,211.085,210.886,210.691,210.497,210.306,210.121,209.953,209.787,209.623,209.461,209.301,209.143,208.987,208.832,208.68,208.536,208.397,208.26,208.124,207.993,207.865,207.739,207.614,207.49,207.368,207.251,207.14,207.03,206.922,206.814
207.496,207.62,207.745,207.872,208,208.13,208.265,208.402,208.541,208.689,208.842,208.997,209.154,209.312,209.473,209.635,209.799,209.966,210.14,210.324,210.513,210.707,210.903,211.102,211.303,211.506,211.712,211.936,212.164,212.395,212.628,212.865,213.104,213.348,213.603,213.879,214.159,214.442,214.728,215.018,215.312,215.61,215.934,216.265,216.6,216.939,217.288,217.644,218.013,218.41,218.812,219.219,219.631,220.048,220.475,220.942,221.415,221.893,222.385,222.886,223.415,223.977,224.545,225.12,225.703,226.307,226.963,227.627,228.299,228.983,229.716,230.498,231.288,232.088,232.899,233.808,234.726,235.655,236.594,237.649,238.726,239.824,240.957,242.218,243.49,244.775,246.195,247.68,249.176,250.801,239.4,238.124,236.861,235.611,234.375,233.152,231.943,230.747,229.565,228.396,227.24,226.098,224.97,223.854,222.752,221.664,220.589,219.528,218.48,217.445,216.424,215.416,214.422,213.441,212.473,211.519,210.579,209.652,208.738,207.838,206.951,206.078,205.218,204.371,203.538,202.718,201.912,201.119,200.34,199.574,198.822,198.083,197.357,196.645,195.946,195.261,194.589,193.931,193.286,192.654,192.036,191.432,190.84,190.263,189.698,189.147,188.61,188.086,187.575,187.078,186.594,186.124,185.667,185.224,184.794,184.377,183.974,183.585,183.208,182.846,182.496,182.16,181.838,181.529,181.233,180.951,180.682,180.427,180.185,179.957,179.742,179.54,179.352,179.177,179.016,178.868,178.734,178.613,178.506,178.411,178.331,178.264,178.21,178.17,178.143,178.129,178.129,178.143,178.17,178.21,178.264,178.331,178.411,178.506,178.613,178.734,178.868,179.016,179.177,179.352,179.54,179.742,179.957,180.185,180.427,180.682,180.951,181.233,181.529,181.838,182.16,182.496,182.846,183.208,183.585,183.974,184.377,184.794,185.224,185.667,186.124,186.594,187.078,187.575,188.086,188.61,189.147,189.698,190.263,190.84,191.432,192.036,192.654,193.286,193.931,194.589,195.261,195.946,196.645,197.357,198.083,198.822,199.574,200.34,201.119,201.912,202.718,203.538,204.371,205.218,206.078,206.951,207.838,208.738,209.652,210.579,211.519,212.473,213.441,214.422,215.416,216.424,217.445,218.48,219.528,220.589,221.664,222.752,223.854,224.97,226.098,227.24,228.396,229.565,230.747,231.943,233.152,234.375,235.611,236.861,238.124,239.4,250.801,249.176,247.68,246.195,244.775,243.49,242.218,240.957,239.824,238.726,237.649,236.594,235.655,234.726,233.808,232.899,232.088,231.288,230.498,229.716,228.983,228.299,227.627,226.963,226.307,225.703,225.12,224.545,223.977,223.415,222.886,222.385,221.893,221.415,220.942,220.475,220.048,219.631,219.219,218.812,218.41,218.013,217.644,217.288,216.939,216.6,216.265,215.934,215.61,215.312,215.018,214.728,214.442,214.159,213.879,213.603,213.348,213.104,212.865,212.628,212.395,212.164,211.936,211.712,211.506,211.303,211.102,210.903,210.707,210.513,210.324,210.14,209.966,209.799,209.635,209.473,209.312,209.154,208.997,208.842,208.689,208.541,208.402,208.265,208.13,208,207.872,207.745,207.62,207.496,207.374,207.254,207.143,207.033,206.924,206.817
207.503,207.627,207.752,207.879,208.008,208.138,208.269,208.407,208.547,208.699,208.852,209.007,209.164,209.323,209.484,209.647,209.811,209.978,210.159,210.343,210.529,210.722,210.919,211.118,211.32,211.524,211.737,211.963,212.192,212.423,212.658,212.895,213.135,213.379,213.639,213.917,214.197,214.482,214.769,215.061,215.356,215.664,215.993,216.325,216.662,217.003,217.349,217.704,218.09,218.49,218.894,219.303,219.718,220.138,220.588,221.058,221.533,222.015,222.503,223.004,223.563,224.129,224.701,225.281,225.867,226.511,227.172,227.841,228.518,229.208,229.977,230.766,231.563,232.37,233.245,234.162,235.089,236.026,237.04,238.112,239.196,240.291,241.531,242.804,244.089,245.457,246.945,248.444,250.01,239.753,238.463,237.186,235.923,234.673,233.437,232.215,231.005,229.809,228.627,227.458,226.302,225.16,224.032,222.916,221.815,220.726,219.651,218.59,217.542,216.507,215.486,214.478,213.484,212.503,211.536,210.582,209.641,208.714,207.8,206.9,206.013,205.14,204.28,203.433,202.6,201.781,200.974,200.182,199.402,198.636,197.884,197.145,196.419,195.707,195.008,194.323,193.651,192.993,192.348,191.716,191.098,190.494,189.902,189.325,188.76,188.209,187.672,187.148,186.637,186.14,185.656,185.186,184.729,184.286,183.856,183.439,183.036,182.647,182.27,181.908,181.558,181.222,180.9,180.591,180.295,180.013,179.744,179.489,179.247,179.019,178.804,178.602,178.414,178.239,178.078,177.93,177.796,177.675,177.568,177.474,177.393,177.326,177.272,177.232,177.205,177.191,177.191,177.205,177.232,177.272,177.326,177.393,177.474,177.568,177.675,177.796,177.93,178.078,178.239,178.414,178.602,178.804,179.019,179.247,179.489,179.744,180.013,180.295,180.591,180.9,181.222,181.558,181.908,182.27,182.647,183.036,183.439,183.856,184.286,184.729,185.186,185.656,186.14,186.637,187.148,187.672,188.209,188.76,189.325,189.902,190.494,191.098,191.716,192.348,192.993,193.651,194.323,195.008,195.707,196.419,197.145,197.884,198.636,199.402,200.182,200.974,201.781,202.6,203.433,204.28,205.14,206.013,206.9,207.8,208.714,209.641,210.582,211.536,212.503,213.484,214.478,215.486,216.507,217.542,218.59,219.651,220.726,221.815,222.916,224.032,225.16,226.302,227.458,228.627,229.809,231.005,232.215,233.437,234.673,235.923,237.186,238.463,239.753,250.01,248.444,246.945,245.457,244.089,242.804,241.531,240.291,239.196,238.112,237.04,236.026,235.089,234.162,233.245,232.37,231.563,230.766,229.977,229.208,228.518,227.841,227.172,226.511,225.867,225.281,224.701,224.129,223.563,223.004,222.503,222.015,221.533,221.058,220.588,220.138,219.718,219.303,218.894,218.49,218.09,217.704,217.349,217.003,216.662,216.325,215.993,215.664,215.356,215.061,214.769,214.482,214.197,213.917,213.639,213.379,213.135,212.895,212.658,212.423,212.192,211.963,211.737,211.524,211.32,211.118,210.919,210.722,210.529,210.343,210.159,209.978,209.811,209.647,209.484,209.323,209.164,209.007,208.852,208.699,208.547,208.407,208.269,208.138,208.008,207.879,207.752,207.627,207.503,207.38,207.259,207.146,207.035,206.927,206.819
207.509,207.633,207.759,207.886,208.015,208.145,208.277,208.411,208.556,208.708,208.862,209.017,209.175,209.334,209.495,209.658,209.823,209.994,210.177,210.362,210.549,210.738,210.935,211.135,211.337,211.542,211.763,211.99,212.219,212.451,212.687,212.925,213.166,213.411,213.679,213.954,214.236,214.521,214.81,215.103,215.4,215.721,216.051,216.386,216.724,217.067,217.414,217.774,218.168,218.569,218.976,219.388,219.805,220.233,220.7,221.173,221.652,222.137,222.628,223.153,223.712,224.281,224.858,225.441,226.056,226.715,227.381,228.055,228.738,229.477,230.251,231.035,231.839,232.676,233.591,234.517,235.452,236.423,237.495,238.577,239.671,240.847,242.107,243.391,244.703,246.193,247.695,249.21,240.131,238.828,237.538,236.262,234.999,233.749,232.513,231.29,230.081,228.885,227.703,226.534,225.378,224.236,223.107,221.992,220.89,219.802,218.727,217.665,216.617,215.583,214.561,213.554,212.559,211.579,210.611,209.657,208.717,207.789,206.876,205.975,205.089,204.215,203.355,202.509,201.676,200.856,200.05,199.257,198.478,197.712,196.959,196.22,195.495,194.783,194.084,193.399,192.727,192.068,191.424,190.792,190.174,189.569,188.978,188.4,187.836,187.285,186.748,186.224,185.713,185.216,184.732,184.262,183.805,183.362,182.932,182.515,182.112,181.722,181.346,180.983,180.634,180.298,179.975,179.666,179.371,179.089,178.82,178.565,178.323,178.094,177.879,177.678,177.49,177.315,177.154,177.006,176.872,176.751,176.643,176.549,176.469,176.401,176.348,176.307,176.28,176.267,176.267,176.28,176.307,176.348,176.401,176.469,176.549,176.643,176.751,176.872,177.006,177.154,177.315,177.49,177.678,177.879,178.094,178.323,178.565,178.82,179.089,179.371,179.666,179.975,180.298,180.634,180.983,181.346,181.722,182.112,182.515,182.932,183.362,183.805,184.262,184.732,185.216,185.713,186.224,186.748,187.285,187.836,188.4,188.978,189.569,190.174,190.792,191.424,192.068,192.727,193.399,194.084,194.783,195.495,196.22,196.959,197.712,198.478,199.257,200.05,200.856,201.676,202.509,203.355,204.215,205.089,205.975,206.876,207.789,208.717,209.657,210.611,211.579,212.559,213.554,214.561,215.583,216.617,217.665,218.727,219.802,220.89,221.992,223.107,224.236,225.378,226.534,227.703,228.885,230.081,231.29,232.513,233.749,234.999,236.262,237.538,238.828,240.131,249.21,247.695,246.193,244.703,243.391,242.107,240.847,239.671,238.577,237.495,236.423,235.452,234.517,233.591,232.676,231.839,231.035,230.251,229.477,228.738,228.055,227.381,226.715,226.056,225.441,224.858,224.281,223.712,223.153,222.628,222.137,221.652,221.173,220.7,220.233,219.805,219.388,218.976,218.569,218.168,217.774,217.414,217.067,216.724,216.386,216.051,215.721,215.4,215.103,214.81,214.521,214.236,213.954,213.679,213.411,213.166,212.925,212.687,212.451,212.219,211.99,211.763,211.542,211.337,211.135,210.935,210.738,210.549,210.362,210.177,209.994,209.823,209.658,209.495,209.334,209.175,209.017,208.862,208.708,208.556,208.411,208.277,208.145,208.015,207.886,207.759,207.633,207.509,207.386,207.265,207.148,207.038,206.929,206.821
207.515,207.639,207.765,207.893,208.022,208.152,208.284,208.418,208.565,208.717,208.871,209.027,209.185,209.344,209.506,209.669,209.835,210.012,210.195,210.38,210.568,210.758,210.951,211.152,211.354,211.564,211.788,212.016,212.246,212.479,212.715,212.955,213.197,213.452,213.721,213.994,214.274,214.561,214.851,215.145,215.451,215.778,216.11,216.446,216.786,217.131,217.48,217.857,218.247,218.649,219.058,219.472,219.891,220.342,220.812,221.288,221.77,222.259,222.757,223.307,223.864,224.433,225.014,225.602,226.255,226.918,227.59,228.27,228.975,229.746,230.527,231.317,232.116,233.015,233.938,234.872,235.817,236.868,237.949,239.042,240.167,241.427,242.699,243.984,245.424,246.928,248.446,240.537,239.22,237.917,236.627,235.351,234.088,232.838,231.602,230.379,229.17,227.974,226.792,225.623,224.467,223.325,222.196,221.081,219.979,218.891,217.816,216.754,215.706,214.672,213.65,212.643,211.648,210.668,209.7,208.746,207.806,206.878,205.965,205.064,204.178,203.304,202.444,201.598,200.765,199.945,199.139,198.346,197.567,196.801,196.048,195.309,194.584,193.872,193.173,192.488,191.816,191.157,190.513,189.881,189.263,188.658,188.067,187.489,186.925,186.374,185.837,185.313,184.802,184.305,183.821,183.351,182.894,182.451,182.021,181.604,181.201,180.811,180.435,180.072,179.723,179.387,179.064,178.755,178.46,178.178,177.909,177.654,177.412,177.183,176.968,176.767,176.579,176.404,176.243,176.095,175.961,175.84,175.732,175.638,175.557,175.49,175.437,175.396,175.369,175.356,175.356,175.369,175.396,175.437,175.49,175.557,175.638,175.732,175.84,175.961,176.095,176.243,176.404,176.579,176.767,176.968,177.183,177.412,177.654,177.909,178.178,178.46,178.755,179.064,179.387,179.723,180.072,180.435,180.811,181.201,181.604,182.021,182.451,182.894,183.351,183.821,184.305,184.802,185.313,185.837,186.374,186.925,187.489,188.067,188.658,189.263,189.881,190.513,191.157,191.816,192.488,193.173,193.872,194.584,195.309,196.048,196.801,197.567,198.346,199.139,199.945,200.765,201.598,202.444,203.304,204.178,205.064,205.965,206.878,207.806,208.746,209.7,210.668,211.648,212.643,213.65,214.672,215.706,216.754,217.816,218.891,219.979,221.081,222.196,223.325,224.467,225.623,226.792,227.974,229.17,230.379,231.602,232.838,234.088,235.351,236.627,237.917,239.22,240.537,248.446,246.928,245.424,243.984,242.699,241.427,240.167,239.042,237.949,236.868,235.817,234.872,233.938,233.015,232.116,231.317,230.527,229.746,228.975,228.27,227.59,226.918,226.255,225.602,225.014,224.433,223.864,223.307,222.757,222.259,221.77,221.288,220.812,220.342,219.891,219.472,219.058,218.649,218.247,217.857,217.48,217.131,216.786,216.446,216.11,215.778,215.451,215.145,214.851,214.561,214.274,213.994,213.721,213.452,213.197,212.955,212.715,212.479,212.246,212.016,211.788,211.564,211.354,211.152,210.951,210.758,210.568,210.38,210.195,210.012,209.835,209.669,209.506,209.344,209.185,209.027,208.871,208.717,208.565,208.418,208.284,208.152,208.022,207.893,207.765,207.639,207.515,207.392,207.27,207.15,207.04,206.931,206.823
