2010.71,2011.53,2012.22,2013.27,2014.69,2016.63,2017.06,2021.94,2018.72,2029.63,2029.73,2032.72,2036.09,2039.16,2044.97,2043.65,2039.55,2038.23,2038.67,2038.42,2033.6,2029.85,2032.38,2023.73,2020.27,2017.91,2014.11,2013.49,2011.96,2010.21,2010.27,2003.82,2008.09,2006.08,2003.11,2004.67,2004.51,2001.59,2004.79,2004.55,2002.93,2004.34,1999,1998.78,1998.41,2003.05,2002.17,2002.08,2002.45,2001.73,2001.46,2001.24,2001.94,2003.03,2000.98,2000.83,2001.05,2002.96,2002.04,1998.88,2000.74,2000.73,2001.3,2000.94,1999.78,2000.81,2001.28,2001.26,2001.64,1999.75,2002.01,2000.81,2000.61,2000.55,2000.53,2000.54,2000.6,1995.95,1995.56,2001.64,2002.34,2005.22,2005.82,1998.26,1996.47,1999.99,2009.68,2004.78,2001.36,2001.15,2000.78,2000.66,2001.05,2001.33,2000.99,2000.24,2005.99,1996.49,1995.95,2004.01,2002.06,1999.58,2001.16,2001.17,2001.07,2000.9,2000.78,2000.55,2000.47,2000.44,2000.44,2000.46,2000.48,2000.66,1998.42,1998.69,2000.41,2001.2,1999.41,2002.4,2000.82,2000.73,2000.52,2000.54,2000.34,2000.4,2001.19,2000.64,2000.34,2000.43,2000.55,2000.2,2001.23,2000.74,2001.31,2000.79,2000.66,2001.27,2001.15,2000.52,2000.38,2000.99,1997.85,2000.6,2000.57,2000.58,1998.58,2001.58,1998.25,2000.48,2000.31,2000.24,2000.22,2000.24,2000.31,2000.24,2000.15,2000.12,2000.12,2000.13,2000.14,2000.27,2000.41,2000.25,2000.28,2000.35,2000.47,2000.73,2001.37,2003.58,2003.78,1996.35,1995.66,2006.4,2003.54,2001.93,2000.83,2000.91,2002.44,2000.73,2000.81,2000.68,2000.43,2000.43,1997.94,2001.22,1998.5,2000.79,2000.27,2000.97,2001.44,2001.14,1999.33,1996.78,1993.82,1995.99,1998.67,2000.48,2000.16,2001,1998.6,2000.18,2000.37,2000.57,2000.48,2001.61,2000.95,2000.28,2002.36,1996.43,2000.67,2000.35,2001.46,1996.78,2001.3,2000.54,2000.48,2000.61,1999.15,2001.56,1994,2007.01,2000.93,2004.36,2002.97,2001.15,2000.76,2000.55,2001.04,2000.61,2000.44,2000.29,2000.19,2000.18,2000.17,2000.14,2000.2,1999.77,2001.11,2000.13,1994.48,1998.74,2000.94,2000.32,2000.16,2000.49,2000.77,2000.13,2000.21,2000.13,2000.14,2000.31,1998.56,2000.17,2000.29,1997.95,2000.18,2000.2,1998.12,2001.38,1998.81,2000.27,2000.28,1999.9,2000.66,2002.19,1997.41,2000.83,2001.16,2002.99,2000.9,2000.73,2000.65,2000.67,2000.68,2000.43,2000.29,2000.25,2000.31,2001.41,1995.69,1998.45,2001.04,2000.63,2000.44,2001.83,1998.35,2000.77,2000.11,2000.09,2000.09,2000.13,1996.31,1997.73,1997.35,1998.6,2000.33,2000.4,2000.3,2000.16,2000.15,2000.17,2000.2,2000.39,2000.32,2000.73,2000.24,2000.39,2001.55,2002.26,1999.45,2000.83,2000.53,2000.38,2000.41,2000.48,2000.33,2000.26,2000.29,2000.34,2000.38,2000.46,2000.55,2000.79,2001.09,2001.5,2003.15,2006.02,2007.11,2000.28,2007.04,1997.76,2000.53,2003.83,2001.86,2002.06,2001.5,1999.47,2001.69,2002.08,1999.59,2000.61,2000.37,2000.4,2000.79,2000.79,2000.58,1999.17,2001.73,1997.03,1993.63,1999.24,2001.65,1999.74,1999.38,2001.44,2001.88,2001.81,2001.72,2001.49,2000.48,1998.99,2000.51,2000.26,2000.24,2000.29,2000.22,2000.19,2000.31,2000.56,2000.58,1999.5,2000.97,2000.26,2000.32,2001.23,2000.42,2000.3
2013.06,2013.39,2014.23,2015.58,2017.49,2026.43,2023.37,2026.64,2031.36,2035.43,2040.36,2045.7,2048.22,2044.18,2041.36,2040.02,2040.01,2041.35,2044.04,2048.12,2045.69,2040.6,2025.3,2029.58,2025.57,2022.06,2016.55,2016.11,2012.95,2011.85,2011.52,2003.53,2007.76,2006.85,2005.83,2005.04,2004.93,2001.11,2006.59,2002.59,2003.01,2003.39,2003.5,2002.54,2003.08,2003.99,2003.56,2002.53,2003.38,2002.1,2001.48,2001.4,2003.49,2003.09,2001.02,2000.83,2000.95,2001.24,2001.98,2001.28,2000.75,2001.02,2001.2,2000.83,2000.84,2000.87,2001.01,2001.49,2002.29,1999.13,2001.13,2000.81,2000.78,2000.73,2000.6,2000.57,2000.61,2000.98,1997.48,2003.01,2001.65,2002.73,2005.14,2010.05,2002.54,2007.5,2004.16,2002.31,2001.48,1999.5,2000.84,2000.59,2001.7,1997.02,2001.02,2000.84,2001.37,2002.59,2002.78,2002.08,1998.34,1999.51,2000.52,2001.84,2001.55,2001.57,1998.03,2000.47,2000.39,2000.4,2000.44,2000.64,2001.06,2001.23,2000.9,1999.8,2000.4,2000.92,2000.72,1997.66,2001.08,2001.32,2000.5,2002.09,2000.6,2000.33,1998.51,2000.56,2000.4,2000.53,2000.79,2001.25,2001.9,2001.56,2002.4,2001.55,2001.74,2001.06,2001.8,2001.26,2000.48,2001.18,1996.77,2000.61,2000.95,2000.34,2000.44,2000.39,2000.58,1999.55,2001.05,2000.3,2000.84,2000.39,1998.53,2001.04,2000.87,2000.19,2000.18,2000.15,2000.15,2000.17,2000.21,2000.29,2000.39,2000.34,2000.45,2000.76,2001.67,2006.43,1997.18,1990.45,1989.79,1995.31,2007.66,2002.36,2001.05,2000.69,2001.04,2001.85,2001.2,2002.42,2000.7,2000.45,2000.49,1999.17,2000.43,2000.4,1998.91,2000.53,2001.41,2000.46,1999.96,2000.75,2000.75,1999.5,2000.79,1999.76,2000.44,2000.25,2000.44,2000.65,2000.29,2000.15,2000.3,1997.5,2001.11,2000.52,2000.32,2001.51,2000.4,2000.28,2000.64,2002.08,2001.01,1999.57,2001.64,2000.63,2001,2002.31,1992.82,1993.33,1992.65,1995.18,2006.43,2001.64,2000.71,2000.47,2000.74,2000.96,2000.21,2000.15,2000.13,2000.48,2001.26,2000.17,2000.21,2000.29,2000.51,2001.67,2002.5,2001.35,2000.59,1999.82,2000.2,2000.42,2000.5,2000.16,1999.28,2000.13,2000.6,1999.24,2000.4,2000.13,2000.14,2000.23,2000.61,2000.39,2000.27,2000.25,2000.27,2000.25,2000.41,2000.57,2000.6,2000.93,2001.35,2001.46,2002.33,2003.01,2002.28,2001.34,2001.33,2001.29,2001.43,2000.49,2000.37,2000.28,2000.32,2000.59,1999.43,2003.13,2000.47,1998.23,1999.3,2001,2001.36,2000.19,2000.11,2000.1,2000.1,2000.12,2000.32,1997.56,2001.47,2001.74,2000.86,2002.65,2000.04,2000.24,2000.24,2000.34,2000.29,2000.2,2000.6,2000.2,2000.17,2000.23,2000.45,2003.64,2001.71,1997.84,2003.35,2000.59,2000.99,2000.33,2000.3,2000.51,2000.43,2001.24,2000.48,2000.4,2000.73,2001.56,2003,2001.87,2001.7,2002.69,2004.7,2006.5,2006.13,2001.06,2004.14,2002.47,2001.47,2001.32,2001.58,2002.9,2001.26,1998.88,1996.77,2001.26,2000.38,2000.34,2000.38,2000.45,2001.04,2000.65,2000.99,2004.94,2000.93,2003.11,2001.44,1998.65,1998.49,2001.54,2002.21,2000.8,2000.91,2000.53,2000.3,2000.28,2000.24,2000.23,2000.33,2000.71,1996.35,2000.32,2000.51,2000.19,2000.36,2000.86,2000.69,2000.35,2000.24,1999.21,2000.23,2000.17
2015.56,2015.71,2016.67,2018.38,2020.83,2024.27,2028.69,2033.15,2040.23,2051.46,2043.25,2036.58,2031.35,2027.49,2024.93,2023.66,2023.66,2024.92,2027.47,2031.34,2036.6,2043.46,2052.65,2040.21,2032.84,2027.42,2023.1,2019.61,2016.22,2014.42,2012.4,2010.67,2008.92,2007.36,2006.31,2005.44,2004.85,2005.15,2001.79,2005.01,2003.11,2004.43,2003.07,2003.69,2002.79,2007.96,2003.72,2002.05,2007.76,2002.93,2001.73,2001.68,1998.45,1999.98,2001.1,2000.93,2001.03,1999.99,2001.4,2000.9,2000.91,2001.01,1998.68,2001.03,2001.63,2001.15,2001.49,2002.75,1998.85,2001.8,1998.34,2001.11,1998.76,2000.23,2000.91,2001.15,2000.68,2000.76,2001.61,2001.34,2001.26,2001.64,2003.82,1999.4,2004.08,2002.69,2001.94,2001.35,2000.98,2001.01,2000.66,2000.5,2000.57,2000.76,2000.86,2001.81,2001.16,2001.27,2001.17,2000.94,2000.7,2000.67,2002.13,2002.06,2001.6,2000.5,2000.55,2000.38,2000.74,2001.45,2000.87,2001.48,2000.64,1998.39,2002.63,2000.73,2000.38,2000.34,2000.51,2001.3,2000.78,2001.16,2001.54,2000.29,2000.8,2000.29,2000.62,2000.41,2000.5,2000.76,2001.31,2002.72,2006.39,1994.02,2008.17,2003.65,2002.65,2001.72,2000.21,2000.82,2000.54,2000.58,2001.17,2001.95,2000.78,2000.28,2000.24,2000.25,2000.77,1998.09,2001.51,2001,1997.14,2000.89,2000.46,2000.34,2000.44,2000.46,1998.58,2000.31,2000.24,2000.29,2000.33,2000.81,1999.27,2000.76,2000.59,2000.74,2001.65,2005.86,1997.25,1990.51,1989.83,1995.08,2008.02,2003.15,2001.05,1997.95,2000.96,1999.75,1993.7,1997.39,2002.23,2001.23,2000.6,2000.78,2000.32,2000.36,2000.48,2000.27,2000.23,2000.17,2000.18,2000.2,2000.39,2000.38,2000.51,2000.4,2000.78,2000.12,2000.34,1998.35,2001.77,2000.18,2000.27,1999.31,2002.58,2001.55,2003.87,2000.62,2000.44,2000.51,2000.37,2000.7,1998.66,2001.27,2000.91,2001.97,2000.05,2003.85,1991.36,1991.85,1991.78,1994.18,2004.87,2001.76,2000.65,2000.4,2000.74,2001.04,2000.17,2000.12,2000.13,2000.23,2000.38,1999.48,1998.89,2000.43,2000.61,2001.05,2000.61,2000.51,2001.18,1997.56,2000.52,2000.13,2000.09,2000.08,2000.09,2000.12,2000.82,1997.64,2000.46,2000.15,2000.13,2000.11,2000.12,2000.12,2000.13,2000.16,2000.2,2000.35,2001.36,1999.82,2001.62,1999.91,2001.92,2002.81,2004.48,1997.56,2004.07,2003.03,2003.28,2001.89,2002.1,2001.08,2001.64,2000.44,1998.81,2000.32,2001.04,2001,2000.59,2000.27,2000.34,2000.21,1998.65,2000.22,2000.14,2000.23,2000.18,2000.13,2000.2,2000.69,2002.16,1998.83,2000.96,2001.89,2000.92,2000.27,2000.72,2000.15,2001.53,2000.31,2000.38,2000.2,2000.16,2000.19,2000.33,2000.57,2002.46,1994.89,2000.18,2001.34,1998.03,2000.39,2000.43,1999.34,1998.3,2000.46,2000.5,2000.39,2000.54,2002.13,1999.36,2001.48,2001.42,2001.71,2002.19,2003.77,2000.41,2003.13,2002.02,2001.21,1999.61,2001.01,2001.02,2000.62,2000.79,2001.76,2003.64,2000.59,2000.38,2000.37,2000.57,2002.51,2001.31,2000.46,2000.55,2000.95,2002.38,2003.19,2002.31,2001.34,2001.07,2000.57,1996.15,2001.12,2000.71,2000.36,2000.26,2000.23,2000.25,2000.4,2000.96,1996.27,2001.53,1998.29,2000.41,2000.19,2000.45,2000.8,2000.66,2000.35,2000.23,2000.17,2000.15,2000.15
2018.81,2018.5,2019.57,2021.73,2025.08,2029.79,2036.5,2044.16,2045.46,2035.83,2028.01,2021.65,2016.66,2012.97,2010.53,2009.32,2009.31,2010.52,2012.96,2016.65,2021.65,2028.02,2035.84,2045.16,2044,2035.18,2029.5,2020.18,2019.4,2016.44,2013.72,2012.22,2012.26,2008.17,2004.85,2005.92,2005.12,2004.53,2004.36,2004.48,2003.22,2002.9,2003.05,2003.23,2004.51,2004.06,1994.82,1993.4,1999.18,2004.73,2002,2001.62,2001.56,2001.29,2001.32,2001.85,2001.06,2000.58,1998.58,2001.63,2001.58,2000.94,2002,2001.15,2001.56,2002.5,2002.24,2003.36,2002.37,2003.95,2001.8,2001.31,2001.7,2001.29,2002.56,2002.09,1998.96,2000.46,2000.91,1998.53,2002.7,2001.14,2001.89,2003.66,2001.9,2001.38,2001.33,2000.91,2000.76,2002.74,2001.6,2000.48,2000.6,2000.49,2001.27,1996.23,2003.22,2000.79,2001.75,1997.91,2000.56,2000.5,2001.83,2000.53,2000.49,2000.5,2000.32,2000.33,2001.29,1998.41,1999.67,2002.77,1994.82,1993.15,2000.16,2001,2000.45,2000.44,2001.03,1999.71,2000.11,2000.76,2000.66,2000.47,2000.41,2000.34,2000.35,2000.46,2000.99,2001.29,2002.16,2007.04,1998.49,1994.39,1996.79,2005.85,2003.53,2001.62,2000.58,2001.07,2000.52,2000.62,2000.59,2000.43,2000.42,2000.48,2000.29,2000.27,2000.69,2000.62,2000.28,2000.44,2000.52,2000.22,2000.15,2000.14,2000.24,1999.42,1996.79,2000.74,2000.96,2000.69,2000.99,2001.37,2002.55,1999.82,2001.11,2000.69,2001.3,2003.44,2004,1996.55,1995.82,2001.99,1997.52,2002.52,2001.39,1999.55,2000.99,2002.7,1996.44,2000.23,2001.1,2002.97,2002.03,2000.4,2000.73,2001.35,2000.84,2000.49,2000.27,2000.16,2000.13,2000.82,1997.49,2000.26,2000.13,2000.1,2000.08,2000.09,2000.15,2000.57,1995.13,2000.61,2000.31,2001.44,2001.56,2000.65,2002.08,1999.92,2001.76,1997.16,2000.94,2000.64,1997.83,2000.52,2000.81,2002.05,1999.92,2003.79,2003.06,2002.13,2002.33,2003.79,2004.69,2002.02,2000.59,2001.25,2000.33,2000.18,2000.12,2000.11,2000.21,1998.61,2000.31,2001.89,1999.35,2000.75,2001.32,2001.99,1999.4,1998.1,2001.09,1998.92,2000.43,2000.48,2000.08,2000.08,2000.08,2000.17,2000.54,2000.32,2000.35,2001.56,2000.39,2000.13,2000.65,2000.22,2000.18,2000.27,2000.25,2000.6,1998.95,2001.17,2001.48,2003.15,2004.99,2007.23,2009.36,2005.61,2008.51,2004.36,1997.73,2000.36,2003.06,2001.87,1997.22,2000.64,2000.33,2000.28,2000.39,2000.53,2001.09,2000.31,1997.46,2000.29,2000.16,1998.68,2000.33,2000.39,2000.6,2000.19,2000.24,2000.39,1998.39,1997.75,1999.45,1999.42,2000.25,2000.26,2001.48,1995.34,1999.88,2000.4,2000.05,1999.38,2000.16,2000.18,2000.79,2000.77,2000.8,2002.03,2001.02,2000.44,2000.35,2000.36,1998.25,2000.71,2000.37,2000.33,2000.35,2000.39,2000.51,2001.18,1999.61,2000.67,2001.88,2005.03,2002.15,2001.61,2002.18,2000.76,1998.9,1998.53,2001.2,2000.83,2001.24,2000.96,1999.75,2000.67,2000.95,2000.58,2000.46,2000.57,2000.95,2000.99,1999.27,2000.42,2000.42,2000.69,2005.36,1995.36,1996.37,2001.76,2000.67,2001.55,2005.26,2000.81,2000.7,2000.44,2000.55,2000.37,2000.49,2000.41,2000.34,2000.4,2000.68,2000.31,2000.23,2000.19,1999.45,2000.29,2000.66,1999,2001.34,2000.16,2000.14,2000.14
2023.04,2021.86,2023.01,2025.79,2030.53,2035.4,2043.3,2037.14,2032.06,2022.22,2014.7,2008.6,2003.8,2000.25,1997.9,1996.73,1996.73,1997.89,2000.24,2003.79,2008.58,2014.67,2022.14,2031.06,2041.59,2038.18,2037.03,2026.3,2023.29,2018.64,2015.45,2010.19,2009.68,2008.95,2007.49,2006.37,2005.49,2004.82,2004.42,2002.53,2003.39,2003.01,2002.71,2003,2003.42,2002.72,1993.69,1992.3,1997.96,2005.2,2002.06,2001.41,2001.17,2001.03,2000.95,2001.1,2001.06,2001.08,2002.7,1998.69,2002.12,1999.6,2001.58,2001.48,2002.72,2006.77,2005.44,2005.14,2005.25,2003.81,1999.99,2002.08,2000.05,2001.32,1997.91,1999.31,2001,1999.27,2000.84,2001.43,2001.49,2000.95,2003.23,1998.75,2002.63,2000.87,2000.95,2000.78,2001.53,2001.26,2001.02,2000.71,1998.8,2000.51,2000.59,2001.14,2001.24,1998.1,2001.05,2001.35,2000.43,2000.35,2000.5,1999.73,2000.64,2000.84,2000.28,2000.29,2000.36,2000.5,2000.72,2001.89,1994.79,1996.15,2003.9,2001.31,2000.77,1998.67,1998.59,1995.99,1996.34,2001.04,2000.98,2000.54,2000.6,2000.55,2000.45,2000.56,2001.38,2002.36,2003.09,2005.09,1994.07,1990.74,1998.54,2002.74,2005.03,2002.76,2001.66,2000.85,2000.64,2000.35,2000.5,2000.49,2000.63,2000.71,2002.17,2000.97,2000.29,2000.24,2000.17,2000.16,2000.17,2000.35,2000.51,2000.2,1998.07,2000.38,2000.67,1996.99,1999.48,1996.95,2002.01,2000.61,2000.52,2000.41,1997.72,2000.7,2001,2002.14,2003.9,2009.71,2007.9,2004.7,2002.93,2001.45,2002.42,2001.15,2000.65,2000.91,2001.51,1999.53,2000.89,2000.36,2000.33,2000.53,2002.05,2000.45,2001.17,2002.81,2001.48,2000.26,2000.14,2000.64,2000.2,2000.12,2000.15,2000.26,2000.07,2000.15,2000.19,2000.93,1996.66,2001.85,1998.43,2000.29,2000.24,2000.54,1998.02,2001.7,2001.8,2002.24,2001.83,2000.32,2000.54,2000.26,2000.29,2000.42,2000.64,2001.22,2002.13,2003.83,2001.29,2000.18,2000.69,2001.11,2000.45,2000.26,2000.18,2000.13,2000.11,2000.1,2000.15,2000.76,2000.16,2000.19,2000.4,2000.16,2000.17,2000.5,2001.27,2000.82,2000.31,2000.52,2000.18,2000.33,2000.13,1999.13,2000.36,2000.34,2000.7,2000.41,2001.58,2000.12,2000.37,2000.15,2001.66,2000.25,2000.53,1998.96,2000.6,2000.74,2000.65,2000.86,2001.54,2002.17,2005.35,2000.6,1995.42,1995.68,2001.29,2003.52,2007.33,2006.45,2004.92,2001.39,2001.35,2001.14,2000.75,2000.46,1998.88,2000.61,1998.6,2000.49,1999.64,2000.35,2000.15,2000.18,2000.24,2000.35,2000.37,2000.41,2000.76,1997.98,2000.7,2000.42,2000.37,2000.29,2000.22,2000.23,2000.52,2001.69,2000.88,2000.28,2000.21,2000.19,2000.16,2000.17,2000.26,2000.61,2000.37,2000.45,2000.38,2000.32,2000.33,2000.46,2001.41,2000.5,2000.34,2000.46,2000.54,2000.68,2000.52,1997.92,2001.07,2000.95,2002.97,1995.39,1999.58,2001.3,2001.59,2002.69,1998.82,2000.85,1999.15,2000.63,2001.37,2000.7,2000.42,2000.94,2001.27,2000.48,2001.08,2003.84,2002.23,2000.83,2000.51,2000.36,2000.37,2000.59,2002.52,1995.55,1996.69,2001.72,1999.79,2000.41,1997.15,2001.12,1999.59,2000.9,1995.82,1999.38,1998.76,2000.34,2000.34,2001.83,2000.29,2000.19,1998.96,2000.21,2000.19,2000.23,1998.21,2000.48,2000.32,2000.14,2000.14,2000.15
2031.03,2026.05,2027.05,2031.52,2036.16,2047.03,2041.22,2030.16,2019.16,2010.34,2003.1,1997.2,1992.56,1989.12,1986.84,1985.71,1985.71,1986.84,1989.11,1992.55,1997.18,2003.06,2010.26,2018.86,2028.98,2040.78,2049.58,2037.14,2022.97,2022.37,2017.63,2014.39,2011.85,2009.71,2008.13,2006.89,2005.91,2003.57,2004.49,2003.93,2003.6,2001.88,2002.85,2002.81,2003.43,2007.39,1999.83,1998.27,2004.64,2003.48,2001.89,2001.44,2001.17,2001.02,2000.94,2001.1,2001.29,2000.99,2001.63,2004.8,2002.23,2001.34,2001.38,2001.91,2003.13,2012.23,2011.41,2004.85,2004.35,2009.51,2005.39,2003.23,2001.72,2001.16,2001.25,2001.12,2000.87,2001.04,2000.73,1999.01,2000.72,2001.31,1997.59,2002.01,2000.76,2000.62,2001.11,2000.74,1998.29,2001.82,2000.48,2000.43,2000.54,2000.49,1999.23,2000.84,2000.11,1998.55,1999.01,2001.76,2000.65,2000.3,1999.92,2001.84,2000.7,2000.29,2000.27,2000.28,2000.35,2000.49,2000.74,2001.05,1999.69,2002.03,2001.05,2000.53,2000.58,2001.91,2001.52,2002.06,2001.8,2000.56,2000.8,2001.79,2000.67,1997.47,2001.08,2000.67,2001.54,2002.59,2004.07,2008.34,1995.16,2000.53,1999.32,2003.41,2006.93,1997.17,2000.16,2001.4,2000.85,2001.01,2001.91,2001.05,2001.51,2000.43,1998.86,2001.89,2000.77,2000.7,2000.23,2000.15,2000.16,2001.78,1998.69,2000.29,2000.37,2000.28,2000.41,1999.51,1999.45,2000.74,2000.36,2000.25,2000.24,2000.25,2000.37,2000.44,2000.99,1999.26,2001.46,2004.57,2002.71,2002.08,2001.51,2001,2000.68,2000.54,2000.99,2001.19,2000.43,2000.37,2000.45,2000.21,2000.27,2000.74,2001.64,1993.26,1993.87,2003.92,1999.86,2001.09,2000.21,1998.66,2000.18,2000.51,2000.7,2000.13,2000.07,2000.17,2000.19,2000.35,2001.06,2000.54,1999.81,2000.29,2000.24,2000.34,1999.2,2001.94,2000.55,2000.61,2001.11,2000.21,2000.18,2000.19,1999.67,2000.76,2000.38,2000.56,2000.94,2001.29,2001.81,2002.08,2001.08,2000.92,2000.31,2000.21,2000.17,2000.14,2000.11,2000.09,2000.09,2000.09,2000.09,2000.31,1998.74,2000.15,2000.13,2000.83,2000.29,2000.15,2000.4,1997.43,2000.2,2000.2,2000.27,2000.84,1999.45,2000.58,2000.26,2000.56,1998.55,2002.47,2000.64,2000.52,2000.13,2000.12,2000.19,2000.46,1998.71,1997.71,2000.84,2000.85,2002.29,2002.41,2004.56,1993.67,1988.85,1989.04,1994.24,2005.72,2007.43,1998.16,2003.44,2001.13,2001.19,1999.27,1999.16,2000.77,2002.23,2001.53,2000.3,2000.45,1998.92,2000.97,2000.21,2000.25,2001,2000.34,2000.68,2000.6,2000.86,2000.61,2001.11,2000.44,2000.36,1999.8,2000.87,2000.28,2000.33,2000.32,2000.26,2000.26,2001.29,2000.45,2000.18,2000.18,2000.36,1997.43,2000.61,1999.83,2000.38,2000.33,2000.48,1998.54,2001.03,1998.83,2000.4,2000.68,2000.94,2001.2,2000.57,2001.19,2000.64,2000.74,2002.32,1998.38,2002.73,2001.05,1999.19,2000.85,1997.52,1999.91,2001.12,2000.53,2000.82,2000.57,2000.42,2000.42,2000.51,2000.75,2002.25,1995.39,1996.51,2001.22,2001.1,2000.52,2000.49,2000.43,2000.89,2002.85,2000.89,2000.99,2000.67,2000.75,2000.66,2000.72,1999.16,2000.68,2001.7,1999.61,2000.41,2000.43,2000.24,2000.19,2000.19,2000.22,2000.71,1998.16,2000.4,2000.79,1998.11,2000.58,2000.16,2000.15,2000.15,2000.28
2031.51,2031.84,2031.79,2036.43,2045.65,2019.48,2029.85,2018.24,2008.49,2000.09,1993.03,1987.3,1982.79,1979.44,1977.23,1976.12,1976.12,1977.22,1979.43,1982.77,1987.28,1993,1999.98,2008.32,2018.1,2029.48,2042.64,2045.65,2033.78,2021.59,2022.09,2015.86,2012.85,2010.56,2008.8,2007.4,2006.31,2003.4,2004.98,2004.24,2001.23,2003.25,2002.88,2002.73,2002.9,2004.24,2005.72,2005.71,2003.77,2002.29,2001.76,1999.35,2001.83,2001.07,2000.96,2000.92,2000.91,2000.93,2001.22,1999.1,2002.16,2002.18,2000.85,2002.55,2003.95,2011.17,1999.8,1984.52,1986.56,1998.42,2008.68,2003.49,2002.13,2001.3,2000.96,2000.81,2001,2000.61,2001.09,2000.79,2000.57,2000.98,2001.7,2000.56,2000.57,2000.5,2000.47,2000.47,2000.62,2000.52,2000.41,2000.45,2000.44,2000.59,2000.97,2000.83,2000.67,2002.57,2002.49,2001.79,2000.41,2000.29,2000.33,2000.73,2000.43,2000.27,2000.27,2000.32,2000.64,2001.72,1999.27,2002.44,2001.7,2000.86,2000.54,2000.4,2000.33,2000.34,2000.47,2000.46,2000.41,2000.32,2000.3,2000.31,2000.51,2001.39,2000.89,2000.79,2001.57,2008.56,2006.22,2003.8,2006.58,2001.79,2002.45,2001.95,2003.3,1994.91,1998.02,2001.7,2003.05,2002.26,2001.6,2001.96,2003.47,2004.09,2003.4,2001.01,1997.49,1997.55,2000.35,2000.16,2000.16,2000.22,2000.34,2000.91,1999.07,2000.95,2000.53,1998.43,2000.42,2000.4,2000.22,2000.61,2001.68,2000.24,2000.26,2000.35,2000.56,2001.17,2005.19,1999.21,2004.06,2002.92,2002.69,2001.61,1998.28,2000.53,2001.64,1997.42,2000.6,2000.25,2000.17,2000.16,2000.24,2000.66,2003.64,1994.9,1995.53,2002.84,2000.8,1998.76,2000.21,2000.39,2000.28,1998.15,2001.38,2000.13,2000.09,2000.07,2000.09,2000.91,2001.23,2000.33,2000.61,2000.59,1998.27,2000.3,1999.72,2000.33,2000.31,2000.38,2000.25,2000.19,2000.21,2000.2,2000.41,1999.04,2000.36,2000.53,1998.43,2001.9,2000.65,2000.56,2000.46,2000.44,2000.24,2000.22,1998.27,2000.66,2000.58,2000.11,2000.09,2000.08,2000.09,2000.14,1999.22,2000.29,2000.24,2000.2,2000.23,2000.12,1998.38,2000.35,2000.22,1999.36,1999.78,1998.94,1999.55,2000.55,1996.7,2000.63,2002.07,1996.83,2002.81,2001.97,2000.14,2000.14,2000.19,2000.36,2000.81,1999.72,2000.87,2001.02,2001.7,2004.49,2002.91,1992.24,1987.5,1987.67,1992.79,2003.99,2009.18,2004.07,2001.73,2000.88,2001.01,1998.31,1998.24,2000.91,2000.31,1998.76,2000.22,2000.16,2000.6,1998.24,2000.3,1998.18,2001.14,2003.71,2004.77,2000.83,2001.48,2001.21,1998.77,2001.13,2000.98,2002.22,2000.68,2000.97,2002.16,2000.52,2000.23,2000.29,1998.51,2000.88,2000.21,2000.23,2000.25,2000.33,2000.33,2001.1,2000.42,2000.41,2001.56,2001.61,1999.5,2001.24,2000.84,2000.41,1998.65,2000.48,2000.44,2000.61,2000.81,2000.75,1998.85,2000.27,2001.51,2000.85,2001.05,2000.65,2000.61,2000.58,2000.51,2000.48,2001.14,2000.4,2000.81,2000.48,2001.46,2001.15,2001.9,1998.85,2000.24,2000.99,1998.01,2000.7,2000.44,2000.33,2000.41,2000.62,2000.55,2000.38,2000.31,2001.18,2001.36,2001.85,1997.14,2000.58,2000.22,2000.27,2000.27,1998.01,2000.37,2000.2,2001,2000.59,1999.46,1999.31,2000.72,2001.36,2000.41,2000.22,2000.15,2000.23,2000.19,2000.36
2042.14,2031.75,2037.34,2043.15,2047.27,2032.66,2019.91,2008.91,1981.97,1992.09,1984.38,1978.78,1974.37,1971.1,1968.93,1967.85,1967.85,1968.93,1971.09,1974.35,1978.76,1984.33,1991.15,1999.27,2008.79,2019.84,2032.58,2047.23,2037.61,2031.05,2022.81,2017.69,2014.13,2011.51,2009.5,2007.94,2006.71,2005.89,2004.2,2003.9,2003.81,2003.29,2002.93,2002.7,2002.7,2001.29,2003.54,1998.82,2004.81,2001.82,2001.5,2001.53,1999.75,2001.1,2000.97,2000.92,2000.92,2000.96,2001.19,2002.97,2003.18,2002.82,2001.98,2002.58,2005.19,2004.93,1994.9,1984.06,1983.65,1993.54,2002.6,2006.28,2003.24,2002.33,2002.72,2000.8,1998.61,2000.72,2001.54,2000.8,2000.74,2000.8,2000.67,2000.64,2000.52,2000.47,2000.43,2000.4,2000.42,2000.45,2000.44,2000.49,2000.62,2000.9,2000.02,2000.75,2001.07,1996.87,1997.93,2000.64,2000.31,2000.28,2000.38,1999.23,2000.69,2000.28,2000.28,2000.38,2001.79,1998.58,2005.67,1995.45,1999.13,2001.14,2000.59,2001.74,2000.38,2000.31,2000.3,2000.29,2000.28,2000.27,2000.27,2000.29,2000.35,2000.58,2000.86,2000.96,2002.03,2007.11,1997.15,1992.76,1995.05,2004.79,2006.01,2005,2002.79,2003.1,2002.89,1998.28,1999.96,1999.5,1997.69,2005.01,1999.82,1997.23,2000.31,2000.92,2000.9,2000.91,2000.27,2000.22,2000.33,2000.24,2001.57,2002.47,1995.91,2003.48,2000.26,2000.3,2000.66,2000.13,2000.28,1998.99,2001.13,2000.3,2000.28,2000.32,2000.47,2001.27,1998.6,1993.59,1999.02,1998.51,1996.29,2002.52,2000.13,2000.57,2000.5,2000.69,1998.34,2000.49,2000.14,2000.14,2000.21,2000.45,2001.08,2002.61,2002.41,2001.16,1999.58,2001.02,1998.54,1998.43,2000.36,1999.77,2000.18,2000.28,2000.69,2000.11,2000.13,2000.16,2000.81,2000.24,2000.26,2000.37,2001.16,2000.24,2000.33,2000.33,2000.91,2000.29,2000.38,2000.37,1999.96,2000.67,2000.62,1998.93,2001.01,2000.62,2001.08,2001.28,2000.46,2000.32,2000.96,2000.53,2000.6,2000.58,2000.89,2000.43,2000.86,2000.15,2000.17,2000.15,2000.12,2000.27,2000.5,1999.38,1999.75,2000.63,2000.3,2000.93,2000.31,1999.8,2000.54,2000.37,2000.26,2000.81,2000.25,2000.41,1997.96,2000.79,1996.99,1996.13,1998.56,2000.44,2000.14,2000.44,1999.62,2000.21,2000.38,2000.49,2000.6,2000.93,2001.7,2003.73,2007.29,1995.99,1991.03,1991.21,1996.57,2008.42,2003.89,2001.95,2001.15,2000.84,2000.6,2001.4,1998.75,2000.62,2000.23,2000.16,2000.12,2000.12,2000.37,1999.39,2000.41,2001.16,1998.26,2000.76,2000.79,2001.48,2000.32,2000.46,2000.57,1994.9,2002.79,2000.43,2000.42,2000.38,1995.78,1999.73,2000.28,2000.46,2000.47,2000.28,2000.59,2001.84,2000.31,2000.36,1999.6,2000.27,2000.32,2000.53,1997.58,1997.06,1995.12,1999.26,2001.52,2000.48,2000.55,1998.15,2000.49,2000.49,2001.52,2000,2000.7,2001.86,2001.41,1997.72,2000.69,2000.51,2000.48,2000.46,2000.46,2000.51,2001.79,1999.79,1999.7,2000.54,2003.58,1997.41,2001.18,2000.89,2000.79,2000.52,2000.46,2000.36,2000.3,2000.29,2000.29,2000.3,2000.29,2000.47,2000.54,2000.36,2000.88,2000.55,2001.88,2000.43,2000.43,2000.23,2000.24,2000.25,2000.24,2000.48,2000.74,2000.36,2000.68,2000.81,2000.61,2000.26,2000.16,2000.15,2000.17,2000.92,2000.35,2000.45
2030.89,2047.24,2043.57,2051.07,2038.38,2024.14,2011.73,2000.98,1992.02,1983.89,1977.02,1971.53,1967.21,1964,1961.88,1960.82,1960.82,1961.87,1963.99,1967.2,1971.51,1976.98,1983.65,1991.6,2000.91,2011.69,2024.11,2038.36,2046.76,2034.17,2026.91,2020.1,2015.61,2012.84,2010.24,2008.57,2007.12,2006.02,2005.3,2004.58,2003.87,2003.38,2002.99,2002.72,2002.67,2002.39,2002.75,2004.25,2002.27,2001.65,2001.43,2001.61,2001.73,2001.07,2000.98,2000.95,2001.05,2001.11,2001.32,1994.75,1995.99,1999.93,2002.49,2002.85,2005.54,2004.88,1994.12,1990.39,1989.89,1992.71,2002.37,2002.35,2001.37,2003.69,2001.98,2000.8,2000.7,2000.76,1999.22,2002.42,2001.13,1999.93,1999.21,1998.22,2001.17,2001.7,2000.16,2000.41,2000.6,1998.72,2000.84,1998.95,2001.73,2005.38,2002.38,2002.03,2000.84,2001.17,2000.96,2000.4,2000.29,2000.33,2003.32,2000.69,2000.45,2000.39,2000.31,2000.4,2001.02,2004.7,2003.88,1997.57,1996.21,2002.1,2000.7,1999.63,2000.43,2001.23,2000.43,2000.28,2000.27,2000.27,2000.29,2000.33,2000.35,2000.41,2000.59,1999.9,2002.46,2005.38,1993.3,1989.16,1991.34,2000.43,2004.15,2001.97,2001.39,2001.18,2001.33,2001.53,2001.84,2003.73,2005.98,2000.18,2001.93,2006.29,2002.5,2001.12,2000.54,2000.31,2000.23,2000.51,1997.18,2000.47,2000.47,2001.12,2000.85,2000.4,2000.2,2000.17,2000.22,2000.27,2000.28,2001.49,2000.97,2000.53,2000.43,2000.36,2000.47,2001.01,2002.95,1997.39,2004.6,1993.83,1991.86,1997.6,2002.22,2000.6,2000.47,1998.89,2000.29,1997.73,2000.18,2000.13,2000.29,1997.86,2000.58,2000.97,2001.29,2000.73,1998.45,2001.37,2000.36,2000.67,2000.36,2000.15,2000.12,2000.3,2000.26,2000.38,1999.43,2000.16,2000.48,2000.78,2000.91,2000.58,2000.5,2000.52,2000.22,2000.17,2001.01,2002.89,1997.58,1999.56,1999.67,2000.76,2000.42,2000.84,1996.22,2003.13,2000.48,1997.65,1999.9,2000.23,2000.35,2000.5,2000.44,2000.43,2000.64,2000.16,2000.22,2000.62,2002.51,2000.57,2000.26,1998.59,2001.01,2001.98,2002.37,2000.27,2000.23,1999.28,2000.29,2000.14,2000.09,2000.08,2000.12,2000.11,2000.25,1998.22,2000.84,2000.24,1999.15,2001.37,2000.58,2000.22,2000.12,2000.13,2000.16,2000.15,2000.2,2000.28,2000.39,2000.7,2000.04,2003.22,2004.21,2005.8,2000.16,2000.37,2006.48,2003.23,2002.41,2001.36,2001.38,1998.77,2000.57,2000.38,2000.39,2000.56,1999.56,2000.15,2000.11,2000.12,2000.39,1999.26,2001.05,1997.46,1996.62,2001.83,2005.08,2000.61,2000.24,2000.3,2001.08,2002.16,2000.89,2000.41,1998.86,2000.86,2001.44,2000.52,2000.28,2000.15,2001.24,2000.28,2000.68,2000.68,2001.01,2000.46,2000.26,2000.26,2000.54,1999.1,2001.09,2003.81,2002.42,2001.11,2000.98,2000.96,1999.15,2000.76,2000.72,2000.61,2001.07,2000.2,2000.6,2000.72,1999.07,2001.4,2000.73,2000.5,2000.46,2000.46,2000.41,2000.62,2000.64,1998.63,2000.78,2001.09,2000.66,2000.74,2000.56,2000.53,2000.55,2000.5,2000.53,2000.8,2000.45,2000.42,2000.29,2000.38,2000.27,2000.46,2000.4,2000.34,1998.72,2001.65,2001.91,2000.37,2000.23,2000.34,2000.32,2000.3,2000.53,1999.5,1997.89,2000.31,2000.21,2000.27,2000.37,2000.19,2000.15,2000.16,2000.25,2000.27,2002.42,2002.02
2024.76,2043.47,2050.6,2046.97,2031.03,2017.12,2004.97,1994.45,1985.35,1970.48,1970.9,1965.49,1961.24,1958.08,1955.99,1954.94,1954.94,1955.98,1958.07,1961.23,1965.48,1970.85,1977.41,1985.22,1994.36,2004.94,2017.15,2024.54,2046.95,2034.77,2021.85,2022.4,2017.17,2014.45,2010.92,2009.59,2007.69,2006.69,2005.36,2004.62,2004.01,2003.49,2003.08,2002.81,2003.04,1997.43,1999.32,2002.31,1999.12,2002.15,2001.83,2001.55,2001.64,2001.11,2001,2001,2000.65,1996.81,2002.24,2002.34,2001.07,2003.41,2002.52,2003.24,2005.28,2011.18,1999.25,1993.66,1993.06,1997.43,2008,2007.64,2002.8,2001.62,2001.06,2000.89,1999.77,2000.73,2000.9,2001.06,1999.96,2001.44,2000.96,2000.9,2000.67,2000.57,2000.62,2000.49,2000.02,1998.67,1999.32,2001.35,1999.86,1994.33,1997.69,1997.84,2001.24,2000.45,2000.39,2000.55,2000.32,2000.34,2001.68,2000.62,2000.58,1998.34,2000.38,2000.63,1998.62,2003.11,2003.95,2002.62,1999.14,2000.19,2000.75,2000.53,2001.13,2000.62,2000.38,2000.31,2000.34,2000.37,2000.37,2001.9,2000.69,2000.42,2000.53,2000.92,2002.47,2007.89,1995.96,1991.75,1994.02,2003.58,2003,2001.43,1998.56,2000.88,2001.93,2000.72,2003.59,2006.11,1998.14,1993.06,1994.61,2003.36,2003.94,1999.41,2000.51,2000.31,2000.26,2000.46,2000.86,2000.64,2000.6,2000.4,2000.29,2000.25,2000.55,2000.29,2001.01,1999.16,2000.38,2000.76,1996.68,2002.67,2002.28,2000.83,1999.53,2001.73,1999.48,2002.84,2003.4,1997.21,1995.35,2002.09,2000.58,2000.67,2000.29,2000.19,2000.14,2000.17,2000.15,2000.19,2000.34,2000.77,2000.32,2000.61,2000.79,2000.25,2000.34,2000.27,2002.08,1997.55,2000.29,2000.76,2000.47,2000.15,1998.47,2000.45,2000.43,2000.2,2000.98,2002.19,1993.43,2001.39,2000.09,1999.84,2000.43,2000.17,2000.37,2001.31,2000.52,2000.54,2000.44,2000.32,2001.53,2001.44,2001.77,2000.61,2000.28,2000.56,2000.26,2000.28,2000.38,2000.75,2001.07,2002.98,1998.28,2000.19,2000.56,2001.76,1997.33,2000.33,1999.71,2000.6,1998.73,2000.89,2000.68,2000.5,2000.44,2000.67,2000.59,2000.31,2000.07,2000.05,2000.06,2000.08,2000.16,2000.35,2000.17,2000.12,2000.56,2001.15,2000.93,2000.45,2000.17,2000.11,2000.11,2000.13,2000.18,2000.25,2000.33,2000.51,2000.84,2001.37,2002.44,2004.9,2006.69,2007.35,2007.02,2002.92,2001.92,2001.69,2000.97,2000.59,2000.53,2000.26,2000.24,2000.29,2000.52,2000.14,2000.11,2000.12,2000.19,1994.24,2003.16,2003.48,1997.86,2000.64,2001.02,2000.33,2000.19,2000.39,2000.74,2000.61,2000.65,2000.74,2001.33,2000.84,2000.59,2000.43,2000.32,2000.3,2000.28,1998.8,2000.31,2000.42,2000.35,2000.29,2000.26,2000.27,2000.39,2000.78,2001.38,2000.1,1999.47,2000.65,1999.73,2001.05,2000.87,2002.27,2004.33,2001.58,2000.75,2000.89,2000.72,2000.73,2000.89,2001.4,1999.99,2000.67,2000.47,2000.5,2000.78,2000.62,2001.79,2000.51,2001.43,1997.28,2000.71,2000.67,2000.54,2000.78,2001.16,2001.55,2000.72,2000.54,2001.55,2001.99,2000.31,1999.01,2000.29,2000.79,2001.72,2000.34,2000.5,2000.87,2001.46,2000.7,2000.37,2000.23,2000.29,2002.84,2000.96,2000.65,2000.61,2000.24,2000.34,2001.71,1999.11,2000.25,2000.18,2000.21,1997.96,2000.62,2001.8,2001.68
2022.06,2041.36,2057.15,2040.75,2025.13,2011.46,1999.54,1973.91,1980.23,1972.43,1965.92,1960.6,1956.41,1953.31,1951.23,1950.19,1950.19,1951.21,1953.28,1956.39,1960.59,1965.9,1972.37,1980.07,1989.07,1999.48,2011.44,2025.13,2040.73,2039.11,2024.35,2023.9,2018.15,2014.32,2012.04,2007.52,2007.91,2005.44,2005.72,2004.93,2004.33,2003.66,2003.18,2002.88,2003.47,2000.76,2000.86,2002.32,2002,2001.5,2001.62,2001.39,1999.65,2001.69,2001.03,2001.01,2001.32,1997.41,1999.05,2002.04,2002.32,2002.87,2003.07,2002.43,2011.48,2008.3,2011.72,2004.77,2003.74,2008.68,2006.34,2003.26,2001.95,2001.67,2001.48,2000.95,2002.45,2000.8,2000.87,2001.06,2001.21,2001.82,2002.88,2003.17,2001.04,2000.85,2000.57,2000.47,2000.56,2000.82,2001.38,2001.51,1998.43,1993.09,1996.83,2002.69,2000.71,2000.37,2000.4,1998.53,2000.42,2000.3,2000.47,2001.55,2002.26,2001.01,2000.4,2000.43,2000.58,2000.54,2000.6,2000.68,2000.71,2000.65,2000.52,2000.58,2000.95,2000.51,2000.41,2000.36,2000.43,2000.5,2000.48,1998.47,2001.02,2000.42,2000.77,2000.85,2001.31,2003.03,2006.37,2001.39,2004.08,2004.29,2001.79,2001,2000.79,2000.63,2000.73,2002.07,1998.17,2006.69,1997.79,1992.74,1994.28,2002.98,2002.84,2001.05,2000.67,2000.38,2000.33,2000.07,2003.74,1999.51,1998.9,2001.06,2000.91,2000.38,1999,2000.57,2000.71,2001.56,2000.46,2001.2,1998.85,1995.36,1998.18,2002,2000.46,2000.55,2000.93,2000.83,2001.18,2002.48,2004.54,1996.32,1998.85,2000.91,2000.3,2000.19,2000.15,2000.25,2000.65,2000.72,1996.76,2001.02,2000.33,1999.09,2000.42,2000.18,2000.18,2000.38,2000.47,2000.89,2000.23,2000.19,2000.14,2000.13,2000.46,2000.27,2000.29,2000.3,2000.34,2002.41,1994.73,1998.88,2000.68,2000.33,2000.2,2000.19,2000.39,1999.87,1996.75,2000.64,1997.84,2002.44,2000.36,2000.33,2000.19,2000.39,2000.29,2000.32,2000.28,2000.25,2000.26,2000.17,2001.04,1997.2,2000.45,2000.14,2000.14,2000.23,2000.32,2000.18,2000.8,2000.36,2002.04,2001.86,2001.07,1999.7,1998.85,1999.46,2000.33,2000.12,2000.07,2000.06,2000.08,2000.14,1998.21,2000.23,2000.07,2000.08,2000.15,2000.6,1994.08,1998.4,2000.8,2000.23,2000.18,2000.14,2000.31,2001.11,2000.35,2000.6,2000.66,2000.95,2001.72,2003,2003.17,1998.29,1999.54,2004.39,2006.48,1997.14,2003.31,2000.53,2000.29,2000.32,1999.59,2000.25,2000.16,2000.14,2000.58,2000.28,2000.18,2000.99,1996.12,1998.49,2001.48,2000.54,1998.65,2001.07,2000.18,2000.25,2000.51,2001.23,2002.53,2000.74,2001.72,2003.12,2001.49,2000.77,2000.56,2000.31,2000.25,2000.27,2000.25,2000.24,2000.26,1998.71,2000.45,2000.29,2000.31,2000.45,2001.89,1999.27,2000.74,2000.49,2000.6,2001.09,2002.39,2003.92,1996.11,1998.87,2001.49,1997.38,1999.4,2002.63,2000.69,2000.71,2000.73,2000.58,2000.51,2000.74,1998.43,2000.64,2000.49,2000.47,2000.78,1999.08,2000.71,2000.55,2000.76,2003.09,1999.19,2001.6,2001.36,2000.51,2000.37,2000.32,2000.28,2000.28,2000.46,2000.39,1998.5,2000.5,2000.79,1998.72,2001.03,2000.55,2000.34,2001.01,2000.33,2000.77,1999.37,2000.61,2000.26,2000.21,2000.61,1997.83,2002.33,2000.35,2000.95,2000.27,2000.34,2001.62,1995.35,2000.1
2022.4,2042.54,2060.08,2035.97,2020.58,2007.1,1995.31,1985.08,1976.13,1968.49,1962.07,1956.81,1952.68,1943.23,1947.62,1946.51,1946.5,1947.52,1949.56,1952.65,1956.8,1962.06,1968.47,1976.08,1984.98,1995.27,2007.08,2020.56,2035.95,2046.97,2034.6,2025.04,2018.99,2012.11,2012.42,2010.01,2008.17,2007.25,2006.97,2006.57,2005.8,2003.99,2003.33,2002.91,2002.86,2005.69,2003.08,2002.08,2001.7,2002.03,2002.7,2001.5,2001.34,2001.18,2001.56,2001.46,2001.05,2001.18,2001.36,2000.99,2002.02,2008.29,2005.83,2007.53,2013.16,2011.62,2011.25,2010.15,2008.14,2005.72,2003.93,2003.86,2001.64,2001.28,1999.86,1998.95,2000.87,2001.45,2002.49,2005.34,2002.69,2000.06,1995.44,1999.88,2002.97,1998.45,2001.32,2000.65,2000.44,2000.42,2000.71,2002.09,2004.5,2000.98,1998.38,2001.29,2000.85,2000.35,2000.31,2000.38,2000.3,2000.3,2000.45,2000.08,2004.29,2001.42,2000.52,2000.46,2000.48,2000.55,2000.57,2000.56,2000.6,2001.49,2000.56,1998.5,2000.7,2001.26,2001.14,2000.85,1999.09,2000.57,2000.48,2000.82,2000.47,2000.41,2000.8,2000.74,2000.83,2001.38,2002.24,2002.93,2002.6,2002.98,2001.38,2000.73,2000.59,2000.78,2001.51,2001,1999.71,2000.61,2004.79,1999.12,2000.84,2007.36,2001.41,2001.86,1997.81,2000.78,2000.38,2000.76,2001.99,1993.31,1992.86,2002.34,2001.97,2001.45,2000.83,2000.65,2001.14,2000.43,2000.52,2001.56,1998.06,1994.91,2002.74,2000.96,2000.38,2000.48,2000.43,1998.46,2000.51,2000.8,2002.63,1995.47,1997.95,2000.94,2000.7,2001.07,1998.92,2000.9,1996.36,2001.15,1996.32,2000.21,2001.7,2001.23,2000.28,1998.68,2000.54,1997.84,1998.63,2000.29,2000.74,2000.79,2000.26,2000.15,2000.16,2000.5,1998.93,2000.37,1998.13,2001.74,2002.3,2001.13,2000.37,2000.24,2000.24,2000.28,2000.4,2002.28,2000.39,2000.49,2000.97,1999.88,2000.19,2000.17,2000.24,2000.42,2000.81,2002.03,2001.68,2000.31,2000.15,2000.13,2000.22,2000.35,2000.2,2000.74,2000.31,2000.11,2000.13,2000.24,2000.47,2000.38,2001.55,1996.04,2001.33,1997.54,2000.71,2000.86,2000.43,2000.17,2000.09,2000.07,2000.24,2000.42,2000.9,2000.31,2000.08,2000.08,2000.41,1999.48,1999.43,2000.06,1997.53,2000.46,2000.42,2000.17,2000.55,2001.27,2000.38,2000.56,2002.27,2002.57,2000.92,2001.12,2000.86,2004.34,1999.74,1999.91,2002.69,1997.44,1999.95,2000.51,2000.27,2000.3,2001.35,2000.3,2000.81,2000.42,1997.96,2000.19,2000.2,2000.37,2001.5,2001.04,2000.21,1998.45,2000.74,2000.69,2000.15,2000.18,2001.7,1999.95,1998.91,1998.36,1998.86,1996.03,2001.49,2002.41,1998.14,2000.42,2000.3,1999.82,2000.41,2000.24,2000.24,2000.32,2000.3,2000.09,2000.38,2000.35,2000.4,2000.48,2000.46,2000.48,2002.22,2002.65,2000.67,1997.23,2001,2004.31,2001.29,2000.17,2002.23,2001.34,2000.9,2004.4,2004.22,2000.71,2000.59,2000.84,1998.19,2001,2000.5,2000.52,1998.33,2001.03,2001.27,2001.11,2001.01,2000.38,1994.83,1995.26,2002.2,2000.61,2000.44,2000.35,2000.29,2000.31,2000.69,2003.54,2000.53,2000.95,2002.82,1996.52,2002.91,1999.77,2000.47,2000.43,2000.29,2000.73,1996.77,1999.63,2000.32,2000.23,2000.38,2001.22,2000.54,2000.47,1998.55,2000.36,2000.31,2000.94,2000.35,2001.37
2025.81,2051.65,2049.96,2032.56,2017.33,2003.98,1992.28,1982.07,1973.24,1965.68,1959.32,1954.1,1949.99,1946.98,1944.9,1943.87,1943.86,1944.87,1946.9,1949.97,1954.09,1959.31,1965.67,1973.23,1982.06,1992.26,2003.96,2017.33,2032.55,2049.94,2034.63,2025.49,2019.49,2015.66,2012.8,2008.56,2008.85,2007.68,1999.54,1999.93,2009.05,2005.28,2003.65,2002.97,2002.73,2003.2,2001.49,2001.88,2001.64,1999.48,2001.44,2001.43,2002.05,2001.51,2001.11,2001.03,2001.03,2001.1,2001.49,2001.65,2002.55,2005.32,2007.94,2008.92,2001.4,1999.35,2002.25,2010.65,2007.54,2004.58,2003.11,2002.29,2001.6,2001.39,2001.18,2001.08,2000.94,2001.92,1997.79,1995.21,2002.89,1997.19,1992.67,1996.81,2002.88,2001.26,2001.76,2002.33,2000.55,2000.38,2000.41,2000.92,2000.87,2001.22,2001.2,2000.76,2000.9,2000.36,2000.39,1998.17,2000.34,2000.3,2000.4,2001.1,1997.27,2000.31,2000.73,1999.95,2000.67,2001.21,2001.39,2000.66,2000.67,2000.65,2000.63,2000.66,2000.67,2001.8,2001.18,2000.82,2000.56,2001.07,2000.58,1998.98,1999.48,2000.63,2000.41,2000.48,2000.71,2001.51,2001.16,2001.51,2001.66,2001.28,2000.88,2000.65,2000.58,2000.62,2000.97,2000.76,2000.97,2001.72,2002.91,2004.91,2003.82,2002.4,2000.4,2001.46,1998.7,2000.72,2000.59,1998.42,1998.51,1998.19,1998.07,2001.52,2002.62,1995.76,2000.76,2002.73,1996.57,2000.78,2000.78,2002.86,2001.88,2004.97,2002.45,2000.69,2000.49,1997.84,2000.3,2000.25,2000.27,2000.36,2000.73,2001.71,2001.2,2000.72,1996.64,2001.46,2000.28,2000.3,2000.8,2000.45,2001.15,1997.3,1999.5,2000.98,2000.48,1999.67,2000.84,2000.35,2000.28,2000.6,1997.5,1996.98,2000.64,2000.42,2001.19,1998.95,2000.69,2000.54,2000.75,2000.73,1999.1,2000.37,2000.31,2000.57,2000.47,2000.67,2000.81,2000.9,2000.95,2000.31,2000.32,2000.98,2000.23,2000.18,2000.34,2001.23,1994.02,1994.81,1999.2,2000.46,2000.16,2000.15,2000.53,2000.22,1998.84,2000.81,2000.34,2000.12,2000.16,2000.77,2001.16,2001.05,2001.75,2003.3,2000.91,2001.97,2001.61,2001.74,2001.52,2000.47,2000.15,2000.08,2000.1,2000.48,1999.69,2000.47,2000.1,2000.1,2000.5,2001.56,2000.38,1999.04,2000.44,2001.03,2000.6,2000.28,2001.04,2002.04,2000.84,2000.58,1998.63,1997.32,2000.8,2000.71,2001.57,1997.5,1993.61,1999.46,2002.56,2002.22,1999.67,2000.39,2000.26,2000.33,2000.54,2000.58,2001.09,2000.45,2000.22,2000.19,2000.43,2000.65,2000.44,2000.25,2000.06,2000.45,2000.22,2000.14,2000.13,2000.16,2000.29,2000.61,1998.85,2005.75,1994.19,1991.62,1996.67,2003.72,2001.06,2000.44,2000.45,2000.45,2000.47,2000.25,2000.25,2000.27,2000.29,2000.35,2000.42,2000.41,2000.4,2000.43,2000.49,2000.59,2000.88,2002.03,2003.69,2003.51,2001.51,2001.1,2001.26,2000.86,2000.74,2000.74,2000.03,2000.37,2000.23,2000.95,2000.71,2001.34,2000.72,2000.62,2000.64,2000.6,2001.48,1998.53,2000.92,2000.86,2000.84,2002.87,2001.84,1999.9,2001.59,2000.74,2001.46,2000.86,2000.37,2001.09,2001.91,1996.97,2000.96,2001.94,1996.89,1993.52,1998.37,2003.65,2000.79,2000.32,2000.29,2000.89,2001.83,2001.12,2000.26,2000.24,2000.34,2000.27,2000.23,2000.78,1998.13,2000.3,2000.32,2001.43,1997.53,2001.65
2039.12,2053.49,2047.75,2030.5,2015.39,2002.08,1990.43,1980.28,1971.49,1963.97,1957.64,1952.44,1948.37,1945.46,1943.28,1942.25,1942.24,1943.25,1945.27,1948.32,1952.43,1957.63,1963.96,1971.48,1980.27,1990.42,2002.07,2015.52,2030.67,2047.75,2035.82,2026.65,2020.19,2015.63,2013.13,2007.05,2009.18,2007.49,2006.68,2004.37,1998.51,2002.82,2004.22,2003.06,2003.2,2002.46,2002.38,2001.88,2001.63,2001.5,2001.36,2001.74,2002.06,1998.68,2001.29,2001.29,2001.3,2001.15,2001.81,2001.68,2002.55,2005.02,2011.56,1998.89,1992.22,1990.72,1993.83,2000.88,2012.2,2006.39,2003.25,2001.25,2002,2001.63,2005.89,2001.06,2001,2002.61,1998.41,1995.81,2003.62,2003.37,1998.28,2003.02,2001.56,2005.2,1996.85,2002.67,2000.6,2000.35,2000.34,2000.44,2000.76,2001.1,2001.79,2000.56,1998.71,2000.6,2001.39,1999.63,2000.41,2000.32,2000.38,2000.66,2001.59,2001.15,2000.78,2001.01,2001.26,2001.27,2001.06,2000.92,1999.41,2000.92,2000.81,2000.8,1999.96,2001.76,2000.86,2000.7,2000.67,2000.62,2000.55,2000.55,2000.86,1998.31,2000.41,2000.68,1998.66,2001.07,2001.12,1996.49,1999.13,2005.31,2001.19,2001.28,2000.87,2002.27,1998.33,2000.69,2000.61,2000.75,2001.07,2001.57,2001.17,2000.86,2000.63,2000.49,2000.45,2000.38,2000.88,1998.86,2000.04,2002.31,2000.96,2000.75,2001.54,1994.88,1999.77,2001,2001.27,2000.79,2001.45,1999.59,1995.47,1997.1,2002,1998.5,2000.62,2002.21,2000.99,2000.32,2000.21,2000.2,2000.24,2000.3,2000.28,2000.31,2001.29,2001.04,2002.11,2000.3,2000.27,2000.59,2000.9,2001.58,2002.62,1997.59,2000.98,1998.71,2001.31,2000.18,2000.36,2001.1,2000.91,2001.28,2001.08,2000.71,1999.33,2000.88,2001.14,1997.03,2001.81,2001.98,2000.55,2000.71,2000.54,2000.14,1999.3,2002.65,2002.5,2002.2,2000.71,2000.37,1998.68,1998.11,2000.31,2000.19,2002.01,2004.79,1994.96,1995.78,2002.53,2000.43,2000.17,2000.23,2000.18,2001.01,2000.42,2001.75,2002.17,2000.46,2000.48,2002.02,1996.38,2002.85,1999.36,2001.82,2001.27,2000.79,2000.95,1997.21,1998.97,2001.57,2000.22,2000.1,2000.14,2001.1,1995.89,2000.86,2000.13,2000.14,2001.82,1997.05,2000.36,2000.9,2000.57,2001.27,2000.42,2000.49,1999.04,1995.09,1998.04,2000.73,2000.72,2000.84,2000.46,2000.5,2001.06,2001.68,1997.3,2003.65,2000.93,2000.51,2000.38,2000.26,2000.28,2000.73,2001.79,1993.13,2001.02,2000.28,2000.17,2000.29,1998.97,1998.15,1998.93,2000.36,2000.31,2000.16,2000.19,2000.14,2000.11,2000.19,1997.88,2000.43,2000.77,2002.5,1997.52,1994.82,2000.52,2003.04,2001.53,2000.59,2002.02,2001.27,2001,2000.27,2000.27,2000.32,2000.38,2000.44,2000.38,2001.31,2000.51,2000.52,2000.87,1999.46,2001.36,2001.78,2001.23,2001.09,1997.56,2001.47,2000.97,2001.45,2001.34,2000.84,2001.99,2002.21,2000.86,2001.02,2000.98,2001.18,2000.64,2000.96,1999.15,2001.24,2000.76,2000.98,1999.09,1999.81,2000.71,2001.12,1999.05,2001.58,2001.66,2001.17,1997.43,2002.83,2000.4,2000.99,2002.27,1997.14,2001.94,2002.08,1996.37,1992.84,1997.91,2003.27,2003.1,2000.4,2000.4,2001.61,2000.69,2000.5,2000.29,2000.17,2000.17,1999.97,2000.23,2000.22,2000.29,2000.26,2000.43,2001.42,2000.52,1993.85
2040.72,2051.44,2046.93,2029.86,2013.36,2001.38,1989.74,1979.61,1970.83,1963.32,1957,1951.82,1947.85,1942.14,1942.73,1941.64,1941.63,1942.64,1944.66,1947.71,1951.81,1956.99,1963.31,1970.82,1979.6,1989.73,2001.36,2031.19,2030.54,2046.93,2036.52,2024.67,2020.81,2015.74,2012.59,2010.41,2008.53,2007.28,2007.37,2002.19,1997.62,2001.97,2004.35,2003.06,2002.61,2002.39,2002.1,2000.14,2001.78,2001.46,2001.36,2001.47,2002.59,1999.93,2001.25,2001.08,2001.17,2001.55,2000.96,2001.73,2003.07,2004.83,2006.16,1987.08,1988.22,1989.47,1986.51,1998.26,2012.05,2008.6,2004.21,2002.53,2002.3,2001.13,2005.24,2001.31,2001.07,2001.52,2002.49,2003.15,2002.18,2001.64,2001.78,2001.33,2000.92,2001.15,2002.39,2001.13,2000.47,2000.34,2000.3,2000.36,2000.57,2003.16,1996.58,2000.91,2000.39,2001.08,1998.69,2000.09,2000.42,2000.33,2000.44,1998.58,1998.5,2000.8,2001.17,2002.51,2005.14,2004.58,2002.15,2001.35,2001.25,2001.17,2001.13,2001.1,2001.16,1999.71,2001.05,2001.35,2001.7,2002.05,2002.98,2000.54,2000.5,2000.48,2000.37,2000.4,2000.48,2000.54,2001.21,1998.36,1993.58,1998.93,2004.4,1996.71,2003.07,2001.34,2001.85,2002.2,2001.55,2000.52,2000.56,2001.07,2000.56,2000.45,2000.39,2000.31,2000.27,2000.31,2001.01,1996.64,1997.08,2002.72,2000.67,2000.41,2000.83,2001.84,2001.7,2001.15,2000.59,1999.81,1999.76,2000.7,1995,1999.24,2001.52,2000.73,2000.98,2000.67,2002,1998.79,2000.35,2000.15,2000.13,2000.13,2000.12,2000.14,2000.28,2000.52,2000.56,2000.34,2000.43,2000.5,1998.66,2000.96,1999.18,2002.61,2000.86,2000.34,2000.21,2000.14,2000.14,2000.21,2000.56,2001.27,2000.85,2000.71,2001.08,2000.29,2000.3,1998.21,1997.55,1997.41,2001.42,2000.37,2000.45,2000.88,2002.5,1997.7,1993.97,1999.07,2001.29,2000.58,2000.58,2000.3,2000.16,2000.17,2000.47,2001.73,1998.16,1998.77,2001.77,2000.33,2000.16,2000.3,2000.09,1997.66,2000.57,2000.65,2000.77,2001.26,2000.75,2000.71,2001.4,2001.66,2006.07,2000.04,2002.86,2001.72,2001.04,2001.17,1999.41,2001.07,2000.29,2000.15,2000.16,2001.03,1998.76,2000.35,2000.27,2000.26,2001.5,2000.48,2000.18,2000.64,2001.45,1996.3,2000.64,2000.57,2000.45,1999.65,2001.82,2000.49,2000.28,2000.47,2000.08,2000.37,2000.73,2002.72,2004.51,2001,2000.47,2000.33,1998.73,2000.22,2000.3,2001.32,1995.62,1994.52,2002.28,2000.55,2000.2,2000.26,2002.34,2000.98,2000.75,1999.19,2000.94,2000.28,1998.32,2000.44,2000.15,2000.16,2000.27,2000.29,2000.46,2000.98,2002.35,2003.21,2003.2,1995.36,1999.37,2000.78,2001.42,2000.71,2000.3,2000.28,2000.36,1999.03,1999.69,2001.3,1999.9,2002.42,2001.17,2001.92,2001.03,1998.51,2001.3,2000.22,2001.03,2000.82,2001.13,2000.94,1999.37,1994.47,1999.05,2001.29,2000.84,2000.9,2000.98,2000.79,2000.72,2000.7,2000.73,2001.53,1999.1,2001.53,1999.94,2000.99,2001.57,2001.38,2000.66,2000.69,2000.12,2000.69,2000.62,2001.5,2002.21,2000.6,2000.37,2000.35,2000.5,1999.12,2000.79,1999.62,2005.28,2001,2003.03,2003.07,2002.61,2000.62,2000.89,1997.97,2001.79,2000.56,2000.85,2000.19,2000.19,2000.26,2000.25,2000.19,2000.24,2000.37,2000.76,1997.59,1999.16,1993.04
2034.56,2045.14,2047.47,2030.23,2015.15,2001.83,1990.19,1980.05,1971.26,1963.74,1957.41,1952.22,1948.14,1945.13,1943.06,1942.03,1942.03,1943.04,1945.06,1948.11,1952.21,1957.41,1963.73,1971.25,1980.03,1990.18,2001.81,2015.11,2030.23,2047.48,2023.88,2026.57,2020.09,2015.8,2013.17,2010.14,2008.38,2007.11,2006.5,2007.81,2005.89,2004.63,2003.9,2003.04,2003.45,2003.66,2002.31,2002.11,2001.63,2001.53,2003.17,2001.32,2001.19,2001.13,2001.05,2001.01,2001.1,2001.32,2001.42,2001.76,2003.13,2005.7,2006.21,1994.37,1988.32,1987.43,1992.64,2005.57,2001.4,2004.39,2007.29,2003.18,2002.25,2002.44,2002.74,2001.31,2001.51,2001.12,2001.56,2000.65,2002.12,2001.5,2001.11,2000.91,2000.74,2000.66,2000.61,2000.52,2000.51,2000.37,2000.3,2000.29,2000.35,2001.84,1999.29,2000.58,2000.34,2000.56,2000.54,2000.46,2000.36,2000.37,2000.59,1999.82,2000.8,2000.91,2002.09,1998.97,1990.51,1993.93,2004.92,2002.13,2001.74,2001.72,2001.7,2001.63,2001.51,2001.43,2002.49,2001.58,1993.3,2002.67,2001.33,2000.74,1999.53,2000.53,2000.42,2000.52,2000.43,2000.45,2001.08,2002.74,1998.08,2004.24,2004.57,1999.8,2001.41,2001.88,2000.52,2002.32,2001.76,2000.47,2000.54,2001.04,2000.36,2000.31,2000.2,2000.34,2000.22,2000.25,2000.53,2002.1,1999.38,1997.17,2000.7,2000.26,2000.32,2000.62,1996.76,2001.23,2001.02,1999.19,2001.04,2001.09,1999.61,2001.84,2000.88,2000.29,2000.25,2000.75,1996.27,1997.27,2000.49,2000.14,2000.1,2000.1,2000.09,2000.1,2000.69,2000.62,2000.18,2001.09,2000.18,2000.33,2000.74,2001.15,1997.59,2001.15,2001.19,2001.4,2000.4,2000.19,2000.16,2000.19,2001.99,1998.5,2000.39,1997.2,2000.37,2000.2,2000.22,2000.42,2002,1999.79,2000.63,2000.4,2000.65,2001.7,2003.03,1998.62,1992.26,1999.96,2001.5,1998.95,2000.01,2000.25,2000.15,2000.19,2000.28,2000.5,2001.08,2001.71,2000.8,2000.21,2000.14,2000.29,2000.54,1998.07,2000.57,1999.45,2001.66,2000.22,2000.22,2000.37,2001.1,2004.96,1997.51,1992.44,1994.88,2006.09,2001.14,2000.81,2000.79,1997.25,1999.13,2000.3,2000.28,2001.42,2001.03,2000.34,2000.79,2000.47,1998.73,2000.21,2000.09,2000.13,2000.5,2001.27,2000.34,1999.33,2000.77,2000.9,2000.44,2000.3,2000.26,2000.34,2000.53,2000.29,2000.72,1996.82,1998.05,2000.62,2000.3,2000.22,2000.84,2000.24,2000.26,2000.78,2000.82,1999.51,2001.25,1998.79,2000.24,2000.53,2001.97,2000.29,2000.24,1999.36,2001.46,2000.37,2000.43,1998.24,2000.24,2000.15,2000.16,2000.2,2000.3,2000.44,2000.65,2000.8,2001.13,2001.52,2001.57,2001.11,1998.79,2000.4,2000.29,2000.33,1998.56,2000.54,2000.56,2000.61,2001.71,2001.63,1997.19,2001.55,2000.75,2000.79,2000.81,2001.12,2000.96,2000.91,2000.87,2000.92,2001.38,1998.5,2002.65,2000.99,2000.88,2000.87,2000.85,2000.83,2000.8,2000.89,2000.97,2002.74,1999.75,2000.88,2002.6,1999.73,2000.72,2000.8,2001.9,2000.93,2000.87,2001.43,2001.08,2000.93,1998.8,1999.55,2000.42,2000.37,2000.47,2000.4,2000.43,2000.59,2000.84,2001.15,1997.56,1999.15,1998.27,2001.67,1996.95,2000.72,2000.35,2000.28,2000.28,2000.29,2000.75,1999.84,1999.1,2000.26,2000.57,2001.15,2000.72,1999.92,2001.35,2001.97
2032.29,2040.69,2049.38,2032.01,2016.81,2003.47,1991.79,1981.6,1972.78,1965.23,1958.88,1953.66,1949.54,1946.48,1944.45,1943.44,1943.44,1944.45,1946.48,1949.54,1953.66,1958.87,1965.22,1972.77,1981.59,1991.78,2003.46,2016.8,2032,2049.36,2035.39,2025.72,2019.55,2015.44,2013.04,2010.01,2008.24,2006.96,2006.03,2005.53,2007.6,2005.14,2003.51,2003.15,2003.13,2001.16,2001.07,2000.94,2001.64,2001.55,2001.32,2001.94,2001.16,2001.06,2001.01,2001.02,2002.22,2000.81,2002.52,2002.52,2001.66,2011.63,2011.9,1999.24,1993.05,1992.46,2008.93,1997.6,1993.93,1996.57,2006.45,2004.72,2002.48,2001.98,2001.58,2001.48,2002.61,1998.37,2002.27,2002.22,2002.39,2003.15,2001.25,2001.43,2001.04,2002.16,2000.56,2000.56,1998.34,2000.69,2000.31,2000.28,2000.3,2000.47,1998.79,2000.46,2000.39,2000.44,1999.48,1999.56,2000.43,2000.47,1998.36,2000.53,2000.65,2001.12,2003.13,1997.58,1989.43,1992.74,2005.69,2002.94,2002.69,2002.8,2002.81,2002.66,2002.64,2002.18,1999.72,2000.63,1993.1,1995.11,2002.22,2000.86,2000.79,2000.57,2000.83,1997.97,2000.93,2000.42,2001.72,2000.88,2001.12,2001.87,2002.47,2001.7,2001.88,2000.56,2000.78,2000.41,2000.6,2001.17,1998.34,2000.87,2000.29,2000.51,2001.34,2000.25,2000.19,2000.29,2000.59,2001.03,1997.8,2001.45,2000.55,2000.21,2000.5,1997.97,1999.03,1996.88,2000.59,2000.31,2002.2,2000.97,2000.83,2001.07,2000.87,2000.19,2000.2,2000.61,2000.97,2001.74,2000.31,2000.21,2000.28,2000.49,2000.28,2000.6,2000.13,2000.1,2000.32,1996.97,2000.3,2000.33,2003.21,2003.09,2000.64,2000.72,1997.05,1995.69,2000.97,2000.32,2000.29,2000.27,2000.32,2000.36,2000.28,2000.11,1998.67,2000.33,2000.22,2000.27,2000.52,2000.48,2000.46,2000.82,2001.25,2002.71,1996.22,1993.09,2005.41,2004.48,2001.17,2002.99,2001.18,2000.31,2000.46,1998.34,2001.27,2000.23,2000.25,2000.26,2000.19,2000.13,2000.14,2000.37,2000.39,2000.41,2000.24,2000.5,2000.56,1999.13,2000.23,2000.41,2002.13,1996.73,1997.67,1992.59,1995.03,2006.3,2001.69,2002.07,1999.1,2001.57,1996.45,2000.74,2000.81,1999.16,2002.17,2001.16,1999.32,2000.83,2000.18,2000.09,2000.07,2000.08,2000.13,2000.17,2000.2,1998.87,1997.85,2000.62,1999.99,2000.88,2001.06,2001.53,2000.33,2000.21,2000.34,2001.04,2000.91,2000.44,2000.46,2000.2,2000.25,2000.21,2000.28,2000.42,1999.04,2000.63,2000.57,2000.74,2000.8,2000.61,2000.46,1999.97,2000.28,2000.42,2000.74,2000.42,2000.37,2000.32,2000.17,2000.15,2000.17,2000.18,2000.21,2000.28,2000.33,2000.38,2000.43,2000.49,2000.43,2000.4,2000.9,2000.31,2000.29,2000.33,2000.41,2000.46,2000.47,2000.61,1999.55,2001.86,1997.19,2001.57,2000.79,2000.82,2000.96,1999.28,2001.87,1997.67,2001.12,2001.18,2001.23,2001.78,2001.28,2001.06,2001.01,2000.99,2000.98,2000.96,2000.93,2000.97,2001.03,2000.07,2000.94,2000.82,2001.08,2001.4,2000.77,1997.59,1998.31,2001.22,2000,2000.87,2000.61,2000.77,2001.56,2000.79,2000.48,2000.56,2000.71,2000.38,2000.35,2000.37,2000.43,2000.64,1999.09,1999.44,1998.65,2000.94,2000.92,2000.41,2000.29,2000.24,2000.24,2000.5,2001.15,2000.86,2000.79,2000.31,2000.49,1999.9,2000.5,2001.67,1998.05,2001.18
2031.8,2036.74,2049.25,2035.14,2019.78,2006.33,1994.55,1984.28,1975.39,1967.79,1961.4,1956.15,1952,1948.92,1946.88,1945.86,1945.86,1946.89,1949.13,1952.03,1956.15,1961.39,1967.78,1975.39,1984.27,1994.54,2006.32,2019.77,2035.12,2048.65,2033.51,2024.65,2018.87,2014.85,2012.06,2009.75,2008.05,2007.28,2005.98,2005.05,2004.41,2001.92,2003.34,2000.97,2001.22,1996.83,2003.06,2001.58,2001.6,2001.43,2001.4,2001.5,1999.88,2001.07,2001,2001.04,2001.36,2001.83,2002.18,2003.01,2002.31,2001.72,2006.35,2008.94,2002.92,2002.43,2007.78,1996.66,1993.05,1995.64,2005.36,2006.23,2003.11,2001.72,2001.83,2001.15,2002.47,2003.91,2003.37,2002.33,2001.47,2004.25,2003.4,2001.04,1998.77,2002.63,2000.61,2000.52,2000.48,2000.44,2000.32,2000.32,2000.55,2000.59,2000.36,2000.39,2000.64,1999.73,2001.62,1999.81,2001.09,2000.4,2000.46,2000.53,2000.72,2001.18,2000.72,2005.09,1999.62,2000.71,2005.87,2004.68,2004.71,2005.24,2005.34,2004.87,2002.15,2003.2,2002.79,2002.85,1995.19,1997.65,2001.94,2000.84,2000.6,2000.66,2001.3,1999.89,2001.04,2000.48,2000.57,2001.02,2000.64,2001,2000.93,2000.44,2000.4,2000.51,2000.48,2000.19,2002.11,1995.94,2002.76,2000.42,2000.35,2000.69,2000.69,2000.25,2000.17,2000.75,1997.28,2000.81,1998.73,2000.85,1997.1,2000.21,2000.22,2000.51,2001.39,2002.88,2000.82,2000.26,2000.33,2000.55,2000.44,2000.22,2001.14,2000.16,2000.13,2000.65,1997.24,2000.71,2000.21,2001.45,2001.41,1997.72,2000.87,2000.31,1998.29,2000.18,2000.12,2000.26,2000.17,2000.52,1996.87,1996.85,2000.79,2000.58,2001.53,1999.95,2000.87,2000.78,2000.94,2000.69,2000.4,2000.3,2000.43,2000.21,2000.45,1998.39,2000.28,2000.31,2000.52,2000.49,2000.75,2001.31,2001.23,2001.94,1998.01,1993.68,1997.05,2002.88,2001.1,2000.65,2000.29,2000.23,2000.29,2000.32,2000.59,2000.16,2000.15,2000.13,2000.11,2000.12,2000.22,1999.7,2000.43,2000.32,2000.38,2000.25,2000.26,2000.38,2000.26,2000.37,2001.24,1999.83,2006.6,2000.56,2003.44,2002.5,2002.31,1995.33,1999.54,2001.12,2001.19,2000.58,2001.84,1996.18,1997.33,1999.05,1999.32,2001.09,2000.12,2000.07,2000.07,2000.1,2000.19,2000.35,1997.64,2000.39,2000.48,2001.84,1999.07,2001.09,1999.57,1996.58,2000.5,2000.17,2000.18,2000.28,1998.9,2001.2,1997.38,2000.26,2000.16,2000.38,1999.86,1998.88,2000.42,2000.22,2000.22,2000.3,2000.32,2000.35,2000.3,2001.08,2000.32,2000.86,1997.93,2002.18,1998.98,2000.23,2000.15,2000.2,1999.49,2000.22,2000.22,2000.22,2000.25,2000.29,2000.32,2000.33,2000.3,2000.37,2000.29,2000.3,2000.32,1999.11,2000.48,1999.62,2002.46,2002.82,2002.25,2001.25,2001.35,2000.95,2000.89,2001.2,2002.12,2001.77,2001.64,1999.52,2001.49,2002.05,2001.63,2001.24,2001.24,1999.67,2001.23,2001.18,2001.18,2001.26,2001.13,2001.09,2001.49,1999.54,2001.59,2000.94,2001.11,1998.14,2001.04,2001.02,1998.3,2002.81,2002.43,2001.17,2000.81,2001.49,1996.31,1999.02,2000.91,1996.34,2000.99,2001.84,2000.4,2000.32,2000.36,2000.45,2000.73,2001.02,2000.93,1999.74,2000.65,2000.55,2000.45,2000.32,2000.29,2000.79,1998.53,2002.06,1998.03,2000.77,2000.3,2000.47,1999.01,2001.83,1997.11,2001.61
2026.54,2033.24,2044.35,2039.62,2024.05,2010.42,1998.5,1988.12,1979.14,1971.46,1965,1959.7,1955.52,1952.41,1950.35,1949.32,1949.33,1950.36,1956.53,1955.57,1959.7,1965,1971.45,1979.13,1988.11,1998.49,2010.41,2024.03,2039.6,2043.53,2031.93,2023.38,2018.16,2014.28,2011.62,2009.44,2007.81,2006.64,2003.68,2005.65,2004.15,2003.59,2003.14,2002.9,2002.82,2002.13,2002.26,2001.94,2001.54,2001.4,2001.36,2001.53,2001.31,2001.04,2000.99,2001.17,2002.36,2001.13,1999.8,2000.81,2001.83,2002.37,2003.49,2008.56,2008.18,2010.18,2012.43,2002.41,1998.45,2001.29,2009.01,2003.34,2002.3,2001.96,2001.11,2002.81,2003.97,2004.35,2010.44,2004.13,2005.21,1996.99,1997.49,2005.86,2001.68,2001.03,2000.74,2000.85,1998.54,2000.45,2000.41,2001.21,2000.65,2000.62,2000.43,2000.79,2002.02,1996.29,2000.07,2000.79,2000.47,2000.42,2000.47,2000.56,1999.93,2001.36,2003.97,2003.18,2005.14,2004.64,2005.12,2008.53,2010.89,2003.71,2013.25,2003.54,2007.76,2005.23,2003.62,2002.99,2003.17,2002.62,2002.02,2000.95,2000.67,2000.66,2000.63,2000.58,1999.74,2001.13,2001.54,1996.19,2001.53,2000.58,2000.33,2000.29,2000.3,2000.31,1999.88,2000.52,2001.05,2000.3,2001.15,2000.37,2000.66,1996.9,2000.52,2000.28,2000.16,2000.22,1998.85,2000.27,2000.28,2000.23,2000.22,2000.17,2000.21,2000.77,1998.99,2001.18,1997.26,2000.68,2000.81,2000.17,2000.17,2000.17,2000.25,2000.13,2000.34,2000.3,2000.32,2000.44,2000.09,2000.12,2000.16,2000.2,2000.29,2000.19,2001.24,2000.11,2000.1,2000.22,2000.2,2000.28,2001.29,2002.51,1999.2,2000.94,2000.52,2000.88,2001.06,2008.11,2001.85,2006.47,2000.79,2000.47,2000.6,2000.22,2000.61,1999.69,2000.38,2000.43,2000.55,2000.74,2001.07,2001.58,1999,2001.69,2002.85,2003.85,2003.09,1999.44,2001.61,2001.1,2000.5,2000.16,2000.12,2000.18,2001.22,2000.72,1998.27,2000.15,2000.09,2000.16,2000.75,2001.9,2001.95,2001.84,2001.67,2000.52,2000.48,2000.56,2000.45,2000.37,2000.5,2000.92,2001.24,2001.44,2002.21,2004,2002.18,1994.69,1998.68,2000.82,2000.31,2000.53,2001.74,1996.41,1997.63,2001.16,2000.42,2000.19,2000.09,2000.07,2000.37,2000.49,2001.59,1998.78,1998.28,2000.58,2000.4,2000.07,1997.47,2000.8,2000.57,2000.79,2000.25,2000.16,2000.15,2000.16,2000.2,2000.29,2000.42,2000.19,2000.21,2000.42,2000.48,1999.91,2000.32,2000.48,2000.23,2000.11,2000.11,2000.8,2001.54,2000.41,2000.37,2001.97,1995.03,1999.64,2000.9,2000.23,2000.15,2000.18,2000.55,2000.41,2001.11,2000.38,2001.96,2001.03,1999.95,2000.97,2000.3,2000.43,2000.41,2000.34,2000.36,1998.67,1998.28,2000.55,2000.6,2002.33,2001.28,2000.78,2000.87,2001.14,2001.13,2002.65,2002.05,2004.19,2002.53,2002.34,2001.72,2002.56,2003.67,2001.48,2001.47,2001.5,2001.47,2001.44,2001.49,1998.77,2001.5,2001.85,2001.43,2001.65,1999.7,1999.77,2001.18,2002.72,2000.97,2000.97,2003.46,1998.84,2005.51,2006.01,2001.51,2001.08,2002.02,2002.82,2000.68,2000.73,2001.18,1998.89,2000.44,2000.33,1998.48,2000.63,2004.56,2004.95,2001.65,2000.95,2001.38,2002.01,2001.27,2000.57,2000.32,2000.31,2000.58,2001.54,2001.6,2001.05,2000.43,1997.05,2000.72,2000.42,2000.85,2000.88
2022.55,2029.89,2039.36,2045.53,2029.66,2015.8,2003.69,1993.15,1984.05,1976.26,1969.72,1964.36,1960.12,1956.97,1954.89,1953.86,1953.86,1954.9,1956.98,1960.12,1964.36,1969.72,1976.26,1984.04,1993.14,2003.68,2015.78,2029.64,2045.51,2038.57,2028.47,2023.42,2016.95,2014.04,2008.17,2009.3,2007.6,2005.14,2005.74,2004.77,2003.99,2003.46,2003.02,2002.67,2002.39,2002.15,2001.9,2001.69,2001.51,2001.37,2001.26,2001.18,2001.09,2001.01,2000.99,2001.19,2002.65,2000.98,2001.05,2001.62,2001.59,2003.16,2002.92,2002.8,2003.55,2004.16,2005.2,2005.12,2008.76,2005.15,2005.24,2002.48,2002.12,2002.26,2003.02,2004.69,2007.86,2011.06,2011.49,2009.5,2007.38,1998.1,1999.29,1998.17,2002.84,2000.13,2001.59,1997.33,2000.93,2000.54,2000.52,1999.55,1998.22,2001.79,2000.69,1998.13,2002.69,1996.48,2000.27,2001.06,2000.5,1998.72,2000.51,2000.59,2000.79,2001.2,2002.35,2002.71,2002.81,2004.65,2007.43,2014.2,1989.27,1986.91,2002.46,2004.79,2011.59,2009.83,2005.45,2003.37,2002.31,2002.02,2001.79,1996.84,2001.2,1999.83,2000.51,2001.1,1998,2000.69,2000.8,2002.31,1999.41,2001.3,2000.31,2000.33,2000.52,2000.65,2000.42,2000.39,2001.68,1996.89,2000.4,2000.39,2000.68,2001.82,2001.47,2000.64,2000.16,2000.14,2000.17,2000.15,2000.16,2000.17,2000.21,2000.25,2000.29,2001.59,1994.95,2000.8,2000.67,2000.29,2000.33,2000.23,2000.51,2000.53,2000.25,2000.13,2000.13,1999.97,2000.16,2000.12,2000.11,2000.09,2000.13,2000.32,2000.12,2000.08,2000.08,2000.08,2000.18,1998.53,2002.69,2000.17,2000.29,2001.78,1997.33,2000.82,2000.65,1999.93,2002.98,2001.65,1995.18,1998.74,2002.51,2000.5,2000.27,2000.25,2000.46,2000.76,2000.78,2001.03,2001.03,2002.53,2001.09,1998.99,2005.37,2001.69,2001.18,2001.13,2000.91,2001.05,1999.27,2001.7,2000.56,2000.18,2000.13,2000.2,2001.38,2001.8,2000.21,2000.11,2000.09,2000.18,2001.34,1998.19,2004.36,1998.38,2000.74,2000.8,2002.16,2006.84,2001.5,2000.59,2000.38,2000.81,2000.79,2000.58,2001.41,1997.13,2004.73,2002.77,2001.32,2000.4,2000.21,2000.75,2001.32,2001.18,2001.05,2000.69,2000.16,2000.1,2000.08,2000.08,2000.13,1997.78,2001.22,2000.6,2000.48,2000.76,2001.03,2000.66,2000.73,2000.26,2000.17,2000.16,2000.2,2000.51,2000.4,2000.18,2000.78,2000.85,2000.17,2000.24,2000.71,2001.23,2000.5,2000.36,2000.26,1998.36,2000.56,2000.1,2000.09,2000.16,2000.35,1997.66,2000.5,2001.02,1998.95,1998.83,2000.84,2000.22,2000.15,2000.16,1999.41,2000.38,2000.84,1997.81,2001.76,2000.6,2000.52,2000.31,2000.36,1998.1,2001.69,2001.99,2000.38,2000.46,2001.11,2000.49,2001.07,2002.07,2002.31,2000.73,1998.99,2000.94,2001.39,2004.48,1996.45,1998.67,2003.6,2002.37,2002.08,2001.17,2002.39,2001.84,2001.9,2002.73,2002.07,2001.78,2001.75,2001.76,2001.89,1998.54,2002.03,2001.81,2001.36,2001.34,2001.32,2001.02,2000.96,2001.05,2001.63,2004.94,1995.73,1996.13,2006.49,2000.99,2001.3,2000.73,2002.2,2000.89,2000.68,2000.66,2000.39,2000.34,2000.39,2000.72,2001.58,2001.93,2002.78,2001.83,2000.57,1997.37,2001.77,2001.18,2000.41,2000.25,2000.25,2001.04,2001.61,2001.18,2000.33,2000.58,2000.31,2001.56,2000.35,2000.31
2021.45,2026.64,2034.55,2047.03,2036.69,2022.52,2010.17,1999.43,1990.21,1982.33,1975.6,1970.15,1965.85,1962.65,1960.55,1959.53,1959.61,1960.6,1962.67,1965.85,1970.16,1975.68,1982.32,1990.16,1999.42,2010.15,2022.51,2036.67,2046.75,2035.33,2025.6,2020.57,2015.81,2012.9,2011.35,2008.81,2007.93,2006.5,2005.51,2004.48,2003.85,2003.35,2002.93,2002.61,2002.73,2002.05,2002.01,2001.86,2001.5,2001.36,2001.24,2001.17,2001.07,2001.01,2000.99,2001.1,2001.15,2000.98,2000.95,2001.02,2001.11,2001.28,2001.49,2001.85,1999.65,2002.31,2002.88,2002.83,2002.98,2001.82,1999.53,2002.07,2002.07,2002.89,2004.73,2009.64,1996.97,2000.76,1991.05,2002.29,2010.75,2004.39,2004.78,2002.76,2000.8,2002.64,2001.15,2000.9,2000.99,2001.25,2000.47,2001.64,2001.25,2000.51,2000.66,1994.66,1999.45,2001.23,2000.88,2000.14,2002.19,2000.6,2000.54,2000.63,2000.81,2001.2,2004.98,2003.02,2003.95,2006.14,2012.94,2004.85,1992.54,1985.96,1991.08,1993.39,1989.76,2010.16,2008.67,2004.45,2002.69,2001.94,2001.93,1997.41,2002.7,1998.91,2000.6,2001.64,1997.24,2002.68,2000.79,2000.53,2000.55,2001.22,2000.49,2000.51,2001.82,1998.34,2001.1,2000.46,2001.24,1998.17,2001.08,2000.32,2000.71,1997.42,2000.57,2000.26,2000.15,2000.13,2000.15,2000.2,2000.2,2000.27,2000.61,2001.11,2000.63,2000.32,2000.86,2000.45,2001.56,2000.35,1999.7,2000.59,1997.62,1999.39,2001.17,2000.19,2000.16,2000.16,2000.15,2000.14,2000.11,2000.11,2000.24,1999.22,2000.38,2000.11,2000.11,2000.28,2000.17,2001,2000.92,2000.12,2000.15,2000.48,1997.37,2000.57,2000.35,2001.62,2001.89,1996.97,1997.64,2000.78,2001.36,2000.66,2000.54,2000.29,2000.47,2002.34,2003.22,1998.09,2002.14,2004.12,2007.31,1996.51,2000.63,2002.48,2001.19,2000.74,2000.54,2000.96,1998.97,2003.61,2001.47,2000.28,2000.16,2000.25,2000.59,2000.87,2000.27,2000.13,2000.11,2000.15,2001.13,2001.76,2000.56,2000.34,2000.49,2002.01,1992.62,1995.69,2000.88,2001.53,2000.45,2000.91,2000.98,2000.69,2001.66,2001.01,2000.64,2000.48,2000.35,2000.23,2000.81,2000.23,2001.08,2002.62,2000.29,2000.34,2000.09,2000.11,2000.48,2000.25,2000.1,2000.16,2000.15,2000.18,2000.49,2001.7,1999.53,2000.22,2000.16,2000.12,2000.11,2000.14,2000.3,1997.53,1999.64,2000.26,2000.19,2000.19,2000.31,2002.36,1998.51,1994.56,2001.37,1998.88,2000.99,2000.17,2000.13,2000.2,2000.09,2000.34,1997.83,2000.5,2000.25,1999.45,2000.88,1999.24,2000.19,2000.18,2000.15,2000.16,2000.25,2000.5,2001.76,2000.99,1998.05,2002.33,2000.62,2000.5,2000.41,2001.12,2001.91,2000.81,2000.44,2000.44,2000.71,2000.53,2001.05,2000.95,2000.82,2000.77,2000.86,2001.02,2001.45,2003.45,2004.72,2000.32,2001.47,2004.53,2003.3,2002.63,2002.37,2002.37,2001.3,2002.96,2002.5,2002.26,2002.18,2002.1,2002.05,2002.12,2000.72,1999.02,2001.82,2000.02,2000.47,2001.23,2001.98,2001.18,2001.5,2004.91,1995.7,1996.11,2006.46,2002.18,2001.47,2001.02,2001.87,2001.83,1999.13,1998.85,2000.47,2001.04,2000.66,1999.68,2000.87,2002.48,2001.4,2002.87,1995.93,1992.34,1996.85,2001.73,2000.48,2000.26,2000.21,2000.26,2001.28,2001.38,2000.27,2000.23,1999.86,2000.46,2000.32,2000.33
2019.13,2023.71,2030.11,2039.76,2045.25,2030.68,2018.01,2007.03,1997.68,1989.77,1982.69,1977.13,1972.75,1969.5,1967.36,1966.53,1973.25,1967.96,1969.53,1972.76,1977.16,1989.99,1990.77,1997.56,2007.01,2018,2030.66,2045.22,2034.01,2028.12,2021.11,2019.12,2014.42,2011.78,2009.83,2008.52,2006.05,2005.62,2005.33,2004.32,2003.72,2003.25,2002.86,2002.56,2002.57,2001.99,2001.83,1999.73,2001.63,2001.46,2001.25,1999.6,2001.09,2001.03,2001.07,2001.74,2002.87,2001.36,2000.97,2000.29,2001.08,2001.54,2001.16,2001.28,2001.58,2000.74,2001.74,2001.65,2001.74,2002.39,2002.5,2001.78,2003.86,2009,2007.88,2006.44,1996.89,1990.92,1989.93,1992.55,1999.82,2012.93,2005.02,2002.55,2001.6,2002.47,2001.23,2000.59,2000.79,2001.71,2000.49,2000.38,2000.42,1998.27,2000.61,2001.06,1998.01,2000.83,2000.49,2000.55,1999.7,2001.28,2000.61,2000.7,2000.88,2001.29,2002.49,2000.12,2004.46,2008.27,2009.36,1996.91,1989.65,1983.55,1984.01,1989.9,1989.38,2001.97,2013.4,2005.75,2003.6,1999.25,2001.52,2001.33,2000.9,2000.77,2000.65,2001.47,1996.95,2002.34,2000.42,2002.16,2000.33,2000.57,2000.33,2000.6,1999.57,1996.33,2001.96,1999.77,2000.55,2000.49,2000.33,2000.24,2000.26,2000.34,2000.22,2000.16,2000.15,2000.17,2000.24,1999.06,2000.49,2000.52,2001.91,1995.82,2002.28,2000.44,2000.22,2000.25,1999.59,2000.17,2000.18,2001.2,1999.38,2001.36,2000.57,2000.3,2000.33,2000.37,2000.37,2000.41,2000.23,2000.17,2000.37,1995.87,1997.47,2000.23,2000.37,1997.6,2000.26,2000.17,2000.14,2000.09,2000.11,2000.29,1998.26,2000.33,2001.11,2000.45,2001.1,2002.59,2003.21,2001.76,2000.88,2002.37,2000.61,2000.36,2000.89,2000.6,2001.27,2001.52,2004.65,2002.45,1996.93,1998.43,2006.04,2004.03,2001.75,2000.84,2000.5,2000.92,2000.72,1998.4,1999.05,2000.61,2000.23,2000.71,1998.98,2000.75,2000.96,2000.69,2001.13,2000.19,2000.47,2000.41,2000.17,2000.2,2000.5,2002.71,1996.35,1993.55,1999.5,2000.11,2000.68,2000.77,2001.2,1999.29,1999.01,2000.61,1998.35,2000.5,2001.64,2000.78,2001.26,2000.25,1998.92,2001.07,2000.41,2000.31,2000.1,2000.15,1997.98,2001.21,2000.23,2000.32,2000.11,2000.12,2001.71,1999.02,2000.49,2000.39,1999.49,2000.1,2000.18,2000.77,2000.29,2000.95,2000.8,2000.37,2000.23,2000.2,2000.92,2002,2002.54,1998.02,2000.81,2000.48,2000.25,2000.1,2000.1,2000.65,2000.11,2000.16,2001.14,2000.27,2000.16,2000.33,2000.52,2000.34,2000.2,2000.15,2000.26,2000.79,2000.22,2000.87,1996.13,2001.64,2001.18,2000.82,2000.59,2000.67,2001.24,2000.85,1995.39,2003.76,2000.5,2000.45,2000.49,2001.15,1998.94,2000.77,2001.11,2000.4,2000.94,2001.13,2001.77,2002.71,2004.58,2008.52,2001.25,2003.36,2008.48,2003.89,2003.15,2003.04,2003.88,2003.06,2003.01,2003.51,2002.86,2002.7,2002.57,2002.42,2002.63,2002.6,2001.88,2001.95,2001.55,2000.11,1999.83,2001.35,2001.27,2001.97,2005.39,2005.91,2001.75,2001.46,2002.53,2002.82,2004.38,1997.58,2001.3,2000.77,2000.52,2000.57,2000.37,2000.39,2000.51,2000.5,2000.11,2002.07,2002.28,1996.17,2001.08,2001.25,2000.51,2000.28,2000.24,2002.08,2000.3,2000.25,2000.59,2000.52,2000.51,2000.27,2000.77,2002.12
2017.1,2019.9,2026.13,2033.79,2045.06,2040.4,2027.33,2016.03,2006.3,1998.01,1991.06,1985.38,1980.89,1977.58,1975.46,1974.48,1974.98,1975.8,1977.61,1980.99,1985.54,1991.14,1998.05,2006.29,2016.01,2027.32,2040.37,2044.88,2036.42,2026.38,2020.3,2016.28,2013.18,2010.85,2009.33,2004.39,2009.85,2007.04,2005.22,2004.26,2003.61,2003.15,2002.83,2003.23,2002.5,2001.96,2001.76,2001.66,2002.17,1999.69,2001.31,2001.15,2001.09,1999.85,2001.23,2001.49,1996.16,2003.85,2001.02,2001.1,2001.32,2000.6,2001.01,2001.01,2000.67,2001.38,2001.39,2001.23,1999.64,2001.41,2001.38,2001.61,2002.31,2004.13,2010.26,2001.25,1991.29,1985.76,1986.61,1988.42,1994.38,2006.6,2006.63,2002.92,2001.58,2000.64,2001,2000.54,2000.45,2000.44,2000.41,2000.35,2000.39,2000.36,2002,2000.57,2000.72,2000.6,2001.19,2000.59,2000.63,2000.76,2000.75,2000.83,2001.06,2001.93,2001.92,2002.91,2004.68,2010.04,2005.05,1993.03,1985.41,1981.36,1980.91,1982.83,1988.48,1997.98,2012.58,2007.51,2003.92,2001.8,2001.47,2000.95,2000.7,2000.56,2001.15,2000.62,2000.88,2000.81,2000.57,2001.23,1997.51,2001.46,2000.37,2000.48,2001.59,2003.15,2001.34,2001.03,2000.67,2000.46,2000.32,2000.26,2000.21,2000.19,2000.18,2000.17,2000.18,2000.34,2000.53,1999.73,2001,2000.83,2002.28,1996.33,2002.41,2000.45,2000.18,2000.13,2000.13,2000.13,2000.2,2000.49,2000.74,2001.01,2001.9,2000.79,2001.18,2001.56,2001.66,1997.71,2001.5,2000.35,1999.15,2002.64,1998.75,2000.27,2000.89,2000.66,2000.52,1999.03,2000.38,2000.14,2000.14,2000.19,2000.35,1998.48,2000.35,2000.3,2000.46,1999.78,2000.17,2000.23,2000.77,2001.42,2000.48,2000.44,2001.31,1998.21,2001.28,2002.55,2007.7,1995.14,1991.91,1990.9,1997.76,2000.37,1999.14,2001.05,2000.51,2000.32,2000.5,2001.56,2000.53,2000.46,2000.75,2001,1996.45,1996.29,2001.24,2000.93,1998.33,2000.34,2000.23,2000.11,2000.11,2000.16,2000.37,2001.31,2002.88,2000.04,2007.06,2001.82,2001.09,2002.79,1998.69,1999.31,1999,2000.56,2000.26,2000.18,2001.05,2001.69,2000.26,1998.12,1999.59,2000.23,2000.08,2000.1,1998.03,2000.1,2000.21,1998.4,2001.26,1998.51,2000.17,2000.11,2000.22,2000.52,2000.44,2000.4,2000.17,2000.11,2000.21,2001.07,2000.45,2001.29,2001.88,2001.16,2000.58,1999.57,1998.55,2000.36,2002.34,2000.78,2000.32,2000.46,2000.11,2000.08,2000.07,2000.1,2000.1,2000.11,2000.15,1998.58,2000.14,2000.17,1999.57,2000.19,2000.14,2000.13,2000.17,2000.23,2000.25,2001.05,2001.12,2000.72,2001.39,2000.59,2000.81,1998.29,2000.61,2002.97,1999.48,2001.21,2000.51,2000.77,2004.15,2000.66,2000.71,2000.97,2001.06,2000.93,2001.58,2001.92,2001.6,2002.35,2005.08,2000.06,1994.56,2000.9,2000.58,2005.77,2004.89,2002.97,2004.22,2004.14,2003.95,2004.5,2003.79,2003.64,2003.92,2003.32,2002.75,2002.42,2002.11,2001.86,2001.65,2001.51,2001.46,2001.39,2001.28,2001.37,2001.56,2001.72,2001.36,2001.46,2003.59,1996.62,1995.42,2003.11,2001.36,2001.03,1998.92,2001.61,2000.32,2000.37,2000.63,2000.37,2000.88,2000.89,2001.61,2002.1,2001.4,2000.95,1997.92,2001.02,2000.39,2000.5,2000.28,2000.24,2000.96,2001.09,2000.89,1999.08,2003.59,1996.65
2015.22,2018.45,2022.66,2035.77,2037.84,2051.83,2038.26,2026.56,2016.51,2007.97,2000.82,1994.98,1990.38,1986.99,1983.51,1983.63,1983.65,1984.74,1987,1991.35,2003.54,2000.94,2007.98,2016.51,2026.54,2038.24,2051.79,2035.89,2028.08,2022.36,2017.83,2014.61,2011.97,2009.98,2008.48,2007.68,2006.48,2006.14,2003.72,2002.2,2003.67,2003.25,2003.33,2002.11,2004.2,2001.99,2001.76,2001.59,2001.79,2001.95,2001.49,2001.44,2001.07,2001.25,2001.15,2003.26,2001.11,2002.52,2000.99,2000.69,1999.82,2001.29,2001.05,2000.98,2000.93,2000.91,2000.95,2000.99,2001.68,2001.68,2001.25,2001.6,2003.3,2004.42,2011.24,2001.47,1990.22,1984.95,1983.93,1986.53,1993.67,2007.34,2006.75,2002.93,2001.56,2001.01,2000.7,2000.52,2000.42,2000.39,1999.93,2001.19,2000.92,2000.5,2000.39,2000.37,2000.6,2000.88,1997.26,2000.89,2000.97,2001.52,2001.34,2001.2,2001.18,2001.44,2001.81,2002.72,2004.68,2010.2,2004.78,1992.8,1985.12,1981.05,1980.34,1982.56,1988.24,1997.73,2012.32,2007.44,2004.71,2001.02,2001.45,2000.93,2000.69,2000.55,2000.45,2000.42,2000.62,1998.2,2002.05,2000.79,1999.9,2000.94,1999.13,2000.57,2001.54,1996.12,1995.3,2002.51,1997.54,2003.16,2000.74,2000.54,2000.33,2000.23,2000.25,2000.5,2000.25,2000.02,2000.72,1996.97,1998.14,2001.14,1999.75,1997.45,2001.83,2000.4,2000.17,2000.13,2000.12,2000.15,2000.37,1998.93,1998.84,2002.38,1997.17,1997.98,2000.55,1996.61,2002.85,2000.43,2000.96,1998.27,2000.8,1999.99,2000.31,2000.32,2000.47,2001.35,2000.98,2000.25,2000.16,2000.04,2000.48,1999.01,2000.19,2000.33,2000.33,2000.29,2000.56,2002.55,2001.7,2001.22,2000.24,1999.34,2000.22,2000.58,2000.75,2001.06,2001.08,2002.41,2006.64,1994.29,1989.24,1989.94,2004.03,2008.96,2003.74,2000.95,2000.5,2001.02,2001.68,2000.36,2001.13,2000.32,2000.5,2000.42,2001.93,1999.43,1998.22,1997.57,2002.46,2000.64,1998.52,2000.16,2000.16,2000.66,2000.26,2000.64,2002.92,1996.67,2000.87,2000.79,1996.32,1997.07,1993.28,1999.68,2001.1,2000.35,2001.56,2000.13,2000.29,1999.01,2000.13,2000.18,2000.14,2000.09,2000.07,2000.06,2000.08,2000.06,2000.08,2000.29,1998.34,2000.29,2000.14,2000.36,2000.49,1999.62,2000.72,2001.65,2000.79,2000.14,2000.16,2000.27,2000.86,2000.52,1995.33,1999.79,1998.2,2000.6,2000.28,2000.93,2002.06,2000.61,2000.24,2000.63,2000.12,2000.08,2000.1,2000.1,2000.1,2000.1,2000.12,2000.15,2000.12,2000.12,2000.13,2000.13,2000.13,2000.13,2000.14,2000.15,2000.2,2000.37,2000.3,2000.53,1998.63,1997.42,2000.87,2000.76,2000.38,2000.48,2000.6,2000.58,2000.54,2004.64,2003.99,2001.53,2000.94,2001.08,2000.16,2001.01,2001.45,2001.67,2001.73,2002.48,2005.14,2007.32,1996.23,2007.42,2007.02,2004.29,2005.51,2005.76,2006.57,2005.37,2005.38,2005.31,2005.25,2005.45,2001.05,2004.6,2003.6,2003.02,2002.59,2002.26,2001.96,2001.8,2002.76,2000.85,2001.53,2001.58,2001.8,2001.89,2001.75,2001.79,1999.64,1999.21,1993.17,2000.04,2001.83,1998.99,2000.53,2000.38,2000.36,2000.33,2001.5,2000.39,2000.38,2000.48,2000.65,2000.7,1998.19,2000.62,2001.03,2002.61,2000.45,2000.22,2000.21,2001.36,2000.94,2002.58,2000.92,2000.81,1999.61,1999.69
2013.61,2016.29,2019.72,2024.22,2029.93,2037.7,2050.97,2038.78,2028.34,2019.49,2012.09,2006.06,2001.37,1997.82,1995.46,1994.28,1994.28,1995.44,1997.78,2001.48,2006.57,2012.14,2019.49,2028.33,2038.76,2050.95,2037.18,2029.31,2024.02,2020.42,2015.78,2012.26,2010.9,2009.18,2007.75,2006.65,2005.89,2004.86,2007.03,2002.2,2005.89,2003.82,2002.89,2001.53,2002.38,2002.88,2002.39,2001.62,2001.43,2001.35,2001.45,2001.2,2001.18,2001.29,2001.11,2001.17,2001.36,2001.71,2001.41,2001.01,1999.47,2001.83,2003.03,2001.71,2000.91,2000.81,1999.32,2000.98,2000.92,2000.8,2002.59,2001.84,2002,2004.1,2008.67,2002.84,1987.97,1987.81,1988.5,1989.5,1996.5,2009.13,2005.51,2003.22,2001.48,2000.94,2000.66,2000.5,2000.41,2000.37,2000.57,2000.46,2000.39,1997.95,2001.08,2000.52,1998.76,2000.85,2000.77,2001.18,1999.17,2006.04,2003.59,2002.76,2001.68,2004.31,2002.12,2004.02,2004.27,2008.64,2008.56,2001.06,1988.22,1984.06,1983.84,1985.64,1990.69,2001.27,2008.7,2006.15,2003.3,2002.02,2001.29,2000.9,2000.69,2000.57,2000.45,2000.4,2000.51,2001.48,2001.58,2000.45,2002.22,2000.55,2000.41,2000.47,2001.24,1997.9,1997.06,2002.01,1999.54,2002.59,2000.33,2005.49,1999.49,2000.38,2001.16,2000.9,2000.38,2000.38,2000.47,1998.34,2000.94,2001.13,1997.36,1995.21,2002.14,2000.36,2000.17,2000.14,2000.22,2000.42,2000.45,2000.15,1999.49,2001.43,1996.46,1993.29,1998.64,1992.9,1998.6,2003.4,2001.93,1999.8,2000.38,2000.31,2000.36,2000.9,2002.31,1995.11,2001.69,2000.69,2000.17,2000.14,2000.18,2000.3,2000.27,2000.39,2000.67,2000.36,2002.7,1999.62,2001.02,2001.05,2002.06,2001.81,2002.05,2000.77,1999.13,2000.74,2001.1,2002.09,2005.96,1999.66,1994.45,1995.73,2002.13,2004.28,2001.55,1999.29,2000.55,1998.75,1999.31,2000.2,2000.24,2000.21,2000.12,2000.18,2000.41,2000.96,1999.56,2000.97,2000.47,2000.53,2000.63,2000.24,2000.54,2001.68,2000.34,2000.52,1996.63,2001.65,2000.93,2000.43,2000.83,2001.45,1997.48,2003.07,1998.39,2000.28,2000.55,2000.17,2000.15,2000.18,2000.1,2000.06,2000.07,2000.15,2001.9,2000.1,2000.06,2000.06,2000.07,2000.12,2000.22,2000.67,2000.25,2000.67,1999,2000.23,2000.23,2000.64,2000.28,2000.41,2000.37,2000.31,2001.06,1997.82,1992.94,1997.14,2001.61,2000.44,2000.25,2001.28,1997.75,2000.36,2000.23,2000.94,2000.32,2000.13,2000.1,2000.1,2000.11,2000.11,2000.12,2000.12,2000.12,2000.12,2000.12,2000.12,2000.13,2000.13,2000.14,2000.15,2000.2,1998.1,2000.46,2000.49,1999.15,2000.65,1999.13,2000.4,2000.31,2000.35,2000.4,2000.93,2000.66,2001.37,1996,1998.97,2000.96,2000.98,2000.97,2001.03,2001.38,2001.86,2001.88,2002.54,2004.08,2010.14,2006.71,2007.87,2011.07,2008.63,2007.67,2007.57,2007.49,2007.65,2007.73,2008.12,2007.69,2007.1,2009.19,2006.36,2003.12,2005.51,2003.37,2001.77,2002.46,2002.21,2000.39,2001.68,2002,2002.58,2004.04,2003.97,2001.36,2002.96,2000.9,1998.32,1998.76,2006.73,2001.11,2000.63,2000.42,2000.38,1999.8,2000.67,2000.4,1998.37,2000.65,2001.35,2000.18,2001.01,2000.47,2000.68,2000.68,2000.7,2000.27,1999.39,2000.78,2000.85,2001.75,1997.38,2000.9,2000.39,2000.61,2002.13
2012.26,2014.55,2017.69,2021.85,2025.41,2030.64,2037.71,2047.6,2041.97,2032.73,2025.02,2018.81,2022.97,2010.91,2007.75,2006.52,2006.52,2007.72,2010.14,2013.8,2018.75,2025.02,2032.72,2041.96,2046.9,2036.99,2028.34,2024.49,2020.03,2017.2,2013.87,2011.73,2009.98,2008.55,2007.16,2006.16,2005.36,2004.79,2004.23,2003.92,2003.69,2003.78,2002.31,2002.33,2002.84,1996.2,2000.73,2001.93,2001.51,2001.62,1998.63,2001.58,2002.3,1998.32,2001.99,2000.97,2000.91,2003.24,1997.04,2001.7,2001.15,2000.42,1994.76,2000.68,2001,2000.75,2000.79,2000.81,2000.88,2001.08,1999.29,2000.21,2001.92,2002.92,2005.91,2011.25,2000.34,1994.75,1993.55,1996.63,2004.3,2009,2004.03,2002.83,2001.4,2001.39,2000.63,2000.48,2000.4,2000.36,2000.34,2000.32,2000.33,2000.58,2000.65,1998.72,2000.49,2000.55,2000.98,2001.26,2003.72,1995.89,1994.43,1999.45,2002.76,1998.74,2002.24,2002.36,2003.67,2007.17,2006.44,2003.39,1994.86,1990.66,2001.05,1992.13,1998.62,2008.85,2010.4,2004.41,2003.37,2002.01,2001.23,2000.88,2000.74,2000.18,2000.53,2000.43,2000.4,1999.77,2002.02,2000.45,2000.65,1998.31,2000.63,2001.09,2001.04,2001.41,2001.37,2000.85,2001.41,2003.47,1995.85,2000.28,2000.79,2000.53,1998.1,2001.22,2002.53,2001.99,2001.07,1997.07,2000.64,2001.57,2001.53,2002.5,1999.81,2000.29,2000.18,2000.22,2000.85,1996.87,1999.69,2000.45,2001.58,2000.19,2001.47,2001.68,2000.94,1997.96,2004.72,2003.04,1995.5,2001.8,2000.28,2000.24,2000.57,2004.37,1995.24,1995.87,2002.98,2000.78,2000.35,2000.15,2000.2,2000.6,2001.73,2000.85,2001.12,2000.48,2000.63,2000.81,2001.14,2002.09,2001.01,1999.77,2002.24,1998.98,2000.87,2000.76,2000.98,2001.4,2006.56,2005.35,2007.02,2006.3,2005.07,2002.75,2001.62,2000.67,1999.53,2000.32,2000.26,2000.14,2000.23,1999.67,2000.24,2000.16,1999.25,1999.83,1999.1,2000.22,1998.47,1999.68,2000.1,2000.19,2001.02,1996.67,2000.59,2000.24,2001.12,1998.92,2000.41,2000.24,2000.34,2000.72,2001.05,2000.75,2000.38,2000.21,2000.73,2001.42,2001.51,1999.95,2000.76,2000.07,2000.09,2000.52,2001.43,2000.16,2000.07,2000.07,2000.08,2000.21,1999.16,2000.99,2000.45,2000.28,2000.3,2000.2,2000.47,1997.33,2000.55,1998.83,1998.66,2000.34,2000.63,2002.73,1999.74,2004.76,2001.7,2000.71,2000.19,2000.27,2000.4,1998.97,2000.4,1996.88,2001.03,2000.19,2000.11,2000.12,2000.14,2000.17,2000.17,2000.16,2000.14,2000.13,2000.13,2000.13,2000.14,2000.14,2000.14,2000.15,2000.17,2000.26,2000.29,1998.81,2001.3,2000.41,2000.74,2000.34,2000.31,2000.34,2000.41,2000.51,2002.93,2001.15,2002.93,2001.73,2000.84,2000.83,2000.94,2001.1,2001.32,2001.61,2002.02,2002.68,2003.86,2005.61,2008.86,2030.35,2024.8,2026.49,2013.27,2011.17,2011.14,2011.51,2011.75,2012.11,2011.81,2009.74,2008.83,2007.44,2003.86,2003.98,2004.36,2004.02,2003.74,2003.01,2002.39,2002.54,2003.02,2006.8,2000.92,2000.71,2008.92,1997.07,2002.98,2000.53,2001.99,2001.25,2001.7,2000.54,2000.42,2000.45,2000.15,1999.53,2000.43,2000.77,2000.45,2002.04,1996.16,2003.62,1999.86,2000.28,2000.27,2000.28,2000.22,2000.32,2000.29,2000.31,2000.81,2001.07,2001.5,2000.4,2000.51,2000.68
2011.56,2013.32,2015.42,2016.71,2023.46,2025.41,2030.51,2036.08,2043.26,2047.92,2039.83,2033.29,2028.97,2024.55,2021.74,2020.47,2020.47,2021.72,2024.24,2028.07,2033.23,2039.82,2047.92,2043.2,2035.6,2029.56,2024.62,2020.53,2017.31,2013.85,2012.64,2010.86,2009.21,2007.72,2006.62,2005.77,2005.01,2004.4,2003.86,2003.42,2003.1,2003.09,2002.88,2002.32,2002.46,2005.3,1999.47,2002.6,2000.04,2001.79,2002.21,2002.43,2003.21,1997.44,2002.35,2001.57,2000.91,2001.52,1998.82,2000.31,2001.05,2004.6,1998.27,2004.92,2001.02,2000.98,2000.87,2001.09,2001.51,2001.28,2001.16,2001.43,2001.51,2002.19,2003.74,2007.07,2012.97,2007.15,2005.78,2007.83,2009.04,2004.79,2000.48,2001.86,2001.27,2000.03,2000.6,2000.46,2000.39,2000.35,2000.89,2000.57,2000.33,2000.32,2000.35,2000.4,2000.54,1998.18,2000.74,2001.19,2005.82,1995.2,2001.58,2005.24,2005.94,2002.1,2002.33,2002.15,2003.09,2001.83,2009.13,2015.25,2005.8,2001.11,2000.27,2002.76,2009.62,2012.25,2003.38,1997.32,2004.75,2001.18,2001.26,2000.88,2000.9,2001.34,2001.15,2000.6,2000.54,2000.46,2000.41,2000.37,2000.3,2000.4,2000.98,1996.74,1999.63,2000,1998.83,2000.67,2001.92,2000.65,2003.39,2001.87,2000.71,2000.51,2000.5,1999.01,1998.53,1999.98,2001.64,2001.18,1999.07,2000.39,2000.51,2001.32,2000.63,2000.24,2000.22,1997.88,2000.61,1999.72,2000.65,2000.3,2000.04,1997.43,2000.56,2000.41,2001.64,2001.29,2000.96,2000.91,2002.15,2000.69,1999.84,2000.33,2000.64,2002.2,1993.48,1994.07,2004.42,2000.65,2000.82,2000.16,2000.26,2003.21,1996.06,2004.07,2000.94,1999.15,2000.74,2001.08,2001.73,2003.84,2003.53,2006.37,2002.74,2001.67,2001.11,2001.02,1998.25,1999.45,2001.47,2001.99,2002.53,2002.93,2000.78,1998.88,2001.19,2000.43,2000.31,2000.65,2000.16,2000.18,2000.12,2000.17,2001.05,2000.15,2000.32,2000.31,2000.25,2000.11,2000.1,2000.09,2000.06,2000.06,2000.23,2000.38,2000.16,2000.11,2000.19,2000.65,1998.35,2000.26,2000.16,2000.24,2000.59,2000.24,2000.82,2000.21,2001.98,1999.37,1998.81,2000.42,2000.16,2000.08,2000.11,2001.27,1998,2000.2,2000.1,2000.1,2000.11,2000.17,1999.05,2000.25,2000.32,1999.71,2000.55,2000.74,2000.24,2000.3,2000.23,2000.87,2000.9,2000.24,2000.31,2000.76,2000.55,1998.62,2000.57,2000.24,2000.16,2000.19,2000.29,2000.24,2000.24,2000.58,2001.68,2000.17,2000.14,2000.15,2000.24,2000.44,2000.5,2000.31,2000.19,2000.16,2000.15,2000.16,2000.18,2000.65,2000.17,2000.16,2000.17,2000.21,2000.38,2000.54,2000.49,2001.14,2001.36,2000.43,2000.35,2000.4,2000.72,2001.4,2001.58,2002.16,2000.75,2000.76,2000.78,2000.86,2001,2001.19,2001.44,2001.78,2002.24,2002.92,2004.13,2006.02,2012.64,2019.34,2014.69,2016.13,2024.14,2018.63,2017.81,2018.81,2019.51,2019.14,2017.58,2015.19,2015.31,2010.5,2004.72,2003.85,2005.45,2004.25,2005.32,2003.93,2002.76,1998.1,2005.43,2001.23,1993.57,1992.78,2000.47,2003.12,2001.99,2000.59,2002.71,2000.8,2000.76,2000.51,2001.83,2000.54,2001.48,2003.09,2000.38,2000.29,2000.3,2000.5,2001.04,1999.61,1999.51,2000.58,2001.04,2000.35,2000.82,2000.28,2000.52,2001.11,2000.77,2000.6,2000.57,2001.2,1999.4,2001.2
2008.38,2012.72,2016.02,2020.89,2024.65,2024.62,2027.46,2029.37,2033.09,2037.91,2043.88,2049.85,2044.41,2040.37,2037.7,2036.37,2036.37,2037.69,2040.34,2044.37,2049.83,2044.15,2037.71,2032.4,2027.81,2020.89,2020.84,2018.15,2019.13,2013.42,2011.46,2010.04,2008.53,2007.18,2006.27,2003.7,2004.85,2004.39,2003.89,2003.32,2003.16,2000.37,1999.9,2002.71,2002.13,2004.6,1996.85,2002.81,2001.64,2000.38,1999.24,2002.32,2002.15,1999.66,2001.21,2000.25,2000.89,1997.15,1998.83,2000.83,2000.8,2001,1998.72,2001,2000.79,2000.86,2002.32,2004.08,1997.28,2002.27,2001.27,2001.11,2001.29,2001.87,2002.33,2004.04,2000.6,2006.15,2006.55,2005.45,2004.07,2002.86,2002.4,1999.56,2002.13,2000.84,2000.54,2000.44,2000.38,2000.38,2001.35,1998.04,2000.43,2000.45,2000.45,2000.41,2000.64,2000.72,2000.77,2001.16,2000.28,2002.63,2001.88,1997.32,1997.86,2002.44,2001.9,2001.97,2002.47,2003.46,2005.43,2007.39,2010.65,2006.68,2002.55,2013.3,2009.38,2006.61,2004.75,2000.12,2003.3,2003.05,2001.79,2001.03,2001.59,1997.34,1997.95,2001.12,1999.76,2001.13,2001.06,1999.64,2000.31,2000.31,2000.49,2003.01,2001.36,2001.44,1998.96,2000.64,2000.64,2000,2000.91,2001.32,2001.52,2000.67,2000.43,2001.01,2001.95,2002.18,2000.61,2000.4,2000.4,2001.31,2000.7,1996.97,2002.96,2000.32,2000.21,2000.23,2000.23,2000.42,2000.52,2000.68,2000.29,2000.55,2000.54,1999.51,2002.63,2001.17,1998.57,2000.36,2000.29,2000.26,2001.19,2000.28,2000.52,2001.63,2000.84,2001.54,2001.44,2000.55,2000.25,2000.15,2000.23,2000.85,2002.38,1999.88,1999.85,2000.47,2001.06,2001.79,2003.36,2006.96,2004.49,2007.42,2005.58,2001.29,2001.73,2001.48,2000.95,2000.83,2000.82,2000.92,2001.01,2001.19,2001,2000.67,2000.44,2000.29,2000.24,2000.49,2000.19,1997.95,2000.18,2000.22,2000.01,2000.13,2000.1,2000.13,1998.79,2000.07,2000.07,1998.61,2000.25,2000.07,2000.59,2000.47,2000.44,2000.07,2000.08,2000.13,2000.56,2000.2,2000.11,2000.15,2000.65,1997.84,2001.07,2000.5,2000.23,2000.35,2001.04,2000.36,2000.24,2000.13,2000.1,2000.18,2000.24,2000.18,2000.37,2000.16,2000.15,2000.19,2000.24,2000.34,2000.37,2001.88,2000.47,2000.02,2000.41,2000.21,2000.17,2000.19,2000.19,2000.16,2000.19,2000.34,2001.19,2001.37,2000.28,2000.17,2000.19,2000.49,1998.27,1999.42,2000.42,1999.53,2000.16,2000.14,2000.81,2000.33,2000.62,2002.85,1994.42,2000.97,2000.32,2000.22,2000.23,2000.27,2000.29,2000.44,2000.19,2000.17,2000.18,2000.26,1998.3,1999.61,2000.71,1998.13,1999.23,2000.72,2000.64,2001.17,2001.42,1999.33,1998.11,2001.11,2000.69,2000.71,2000.79,2000.91,2001.07,2001.3,2001.6,2002.02,2002.56,2003.34,2004.57,2007.59,2027.4,2015.79,2011.36,2012.74,2020.31,2025.48,2025.85,2020.95,2019.01,2019.61,2022.58,2026.46,2014.22,2015.49,2012.31,2008.94,2006.89,2005.18,2004.17,2003.56,2002.4,2005.1,2003.8,2001.31,1993.61,1993.39,2000.54,2003.39,2001.91,2001.02,2000.9,2000.81,2000.53,2000.47,2001.63,2000.51,2000.46,1999.44,2000.39,2000.27,2000.26,2000.56,2000.49,2000.49,2000.55,2000.4,2000.53,2000.65,1998.28,2000.38,2001.72,1996.6,2000.93,2000.76,2000.48,2002.36,1995.78,2002.29
2007.35,2012.45,2017.28,2016.8,2005.86,2023.64,2025.77,2026.64,2024.74,2029.55,2033.1,2039.71,2041.34,2047.03,2054.41,2048.63,2047.04,2048.98,2051.57,2043.16,2037.43,2032.79,2028.8,2025.41,2024.43,2018.52,2018.06,2017.14,2011.27,2013.02,2011.04,2009.48,2008.05,2006.79,2005.93,2005.44,2004.96,2002.81,2003.15,2003.83,2003.2,2002.08,2001.58,2002.4,2002.84,2003.03,1999.17,2003.13,2001.56,2002.35,1997.21,2000.08,2000.19,2000.22,2000.92,2001.05,2000.77,2001.18,1998.94,2000.68,2001.01,2001.07,2000.75,2000.63,2000.58,2000.62,2000.96,2000.94,1994.67,1999.29,2002.32,2002.34,2001.52,2002.37,1998.06,2003.22,2002.79,2004.78,2002.03,2002.68,2002.64,2002.66,2003.1,1998.09,2001.78,2000.68,2001.15,2000.45,2000.37,2000.37,2002.05,2000.98,2000.37,2000.65,2000.72,2000.62,1997.96,2002.1,2000.89,1999.73,2001.4,2001.93,2003.25,2001.97,2002.6,2002.25,2001.9,2001.98,2002.23,2002.76,2001.47,2004.16,2005.24,2008.32,2003.95,2007.55,2001.5,2003.82,2002.72,2003.6,2002.22,1998.32,2001.55,2001.92,2001.95,2001.87,1997.66,2001.18,2000.94,1996.83,1998.79,2000.56,2000.38,2000.36,2000.37,2000.48,1999.05,2000.5,2000.5,2000.7,1999.88,2001.1,2000.79,1999.18,2000.61,2000.39,2000.42,2000.68,2000.57,2000.6,1999.34,2000.67,1999.17,2000.78,2000.66,2000.7,2000.58,1997.79,2000.32,2000.2,2000.24,2000.26,1997.53,2002.76,2000.24,2000.24,2000.9,1992.63,1994.06,2001.34,2000.63,2001.21,2000.33,2000.16,2000.15,2000.19,2001.03,2000.82,2000.76,2000.72,2000.49,2000.22,2000.17,2000.14,2000.18,2000.31,2000.77,2001.2,2000.86,2000.97,2001.51,2003.16,2008.36,1994.64,1990.48,1997.43,2003.39,2006,2002.73,2000.6,2000.93,2000.69,2000.67,2000.6,2000.58,2001.09,2000.98,2002.17,2000.43,2000.23,2000.17,2000.18,2000.58,2000.89,2000.11,2000.18,2000.68,1999.52,1999.3,2000.19,2000.16,2000.14,2000.16,1999.28,2001.19,2000.07,2000.2,1997.65,2000.26,2000.07,2000.09,2000.1,2000.29,1998.01,2000.14,2000.15,2000.79,2002.89,2000.44,2000.76,2000.42,2000.75,2000.37,2000.51,2000.57,1998.51,2000.11,2000.09,2000.1,2000.32,1995.72,2000.31,2000.21,2000.5,2002.52,2000.93,2000.81,2000.48,2000.48,2000.5,1998.19,2000.29,2000.2,2000.2,2000.62,2000.23,2000.17,2001.82,2000.37,2000.24,2000.17,2000.19,2000.68,2001.9,1997.71,2000.64,2000.35,2000.24,2000.12,2000.13,2000.6,2000.42,1999.45,1996.37,1995.2,2002.45,2000.82,2000.94,2000.5,2000.98,2001.07,2000.49,2000.26,2000.21,2000.21,2000.31,2000.47,2000.75,2001.84,1999.54,2000.37,2001.06,2000.7,1999.12,1999.29,1998.93,1999.36,2001.12,2000.71,2000.75,2000.84,2000.98,2001.16,2001.43,2001.98,2000.84,2001.49,2003.71,2005.02,2008.04,2030.61,2018.41,2013.81,2015.24,2023.14,2018.89,2010.16,2005.71,2004,1995.98,1996.11,2012.24,2019.67,2024.63,2015.8,2011.94,2008.9,2006.44,2004.19,2004.19,2003.55,1998.27,1995.92,2010.14,2001.13,2000.87,2007.01,1998.39,1999.15,2000.98,2000.71,2000.62,2000.53,2000.44,2000.42,2000.49,1999.5,2000.44,2000.33,2000.29,2000.25,2000.25,2000.29,2000.74,1999.61,2000.43,2003.32,2002.04,2000.53,1999.21,1998.75,2001.21,2000.88,1996.64,2000.71,2000.65,2001.4,2000.89
2009.84,2012.68,2014.35,1999.23,2002.86,2004.9,2013.03,2025.47,2023.76,2023.61,2026.82,2032.94,2014.9,2042.16,2030.36,2024.53,2019.01,2025.2,2031.43,2037.13,2029.63,2025.97,2022.65,2020.65,2018.77,2017.62,2016.71,2016.3,2016.17,2012.19,2012.35,2010.27,2009.77,2006.85,2006.03,2003.73,2000.53,2000.75,2003.97,1999.45,1998.75,2002.63,2002.29,2002.09,2002.76,2002.12,2002.92,2001.89,2001.49,2000.19,2002.15,2001.68,2001.14,2000.93,2000.8,2000.18,2000.73,2000.67,2000.69,2000.61,2000.57,2000.55,2000.54,2000.53,2000.79,2000.65,2000.75,2001.9,2003.18,2002.25,2004.79,2002.51,1999.24,2002.84,1998.81,2004.09,2002.01,2001.94,2002.45,2001.65,2001.63,1999.37,1996.7,2001.88,2000.89,2000.58,2001.12,2000.72,2000.48,2000.34,2000.35,2000.34,2000.34,2000.89,2001.29,2000.6,2001.75,2001.97,2001.76,2000.5,2001.62,2001.48,2002.48,2000.1,2005.49,2002.53,2002.4,2002.34,2002.44,2002.86,2003.75,2002.85,2003.18,2004.13,2001.87,2003.98,2003.41,2002.29,2001.83,2001.51,2001.24,1999.76,2000.89,2000.85,2001.46,2002.16,2001.45,2000.73,1999.73,2002.69,2001.77,2000.68,1999.41,1999.36,2000.57,2000.72,2000.39,1999.02,2000.45,2000.79,2002.92,2000.23,2002.6,2000.85,2000.54,2000.49,2000.66,2001.15,2000.8,2001.91,2000.93,2000.97,2000.69,1999.31,2002.29,2000.3,2000.46,2000.63,2000.31,2000.36,2000.66,1999.42,1998.44,2002.12,2000.23,2000.22,2000.69,1996.81,1998.54,2001.33,2000.37,1998.13,2001.19,2000.2,2000.15,2000.15,2000.32,2000.25,2000.24,2000.23,2000.2,2000.25,2000.21,2000.18,2000.17,2000.24,2000.37,2001.61,2001.5,2001.28,2002.57,2005.39,2001.55,1988.42,1988.41,1988.71,1994.4,2006.36,2003.92,2001.81,2001.03,2000.71,1998.83,2000.66,2000.41,2000.57,2000.87,1997.46,2000.5,2000.2,2000.18,2000.28,1997.38,2000.66,2000.13,2000.34,1999.87,2000.32,2000.56,2000.24,2000.96,2001.2,2000.31,2000.21,2000.07,2000.04,2000.09,2000.47,2000.1,2000.15,2000.82,2000.38,1997.89,2000.49,2000.36,2000.2,2001.55,1998.2,2000.62,2000.54,2001.39,1997.46,2000.49,1998.5,1998.55,2000.36,2000.12,2000.1,2000.11,2000.18,2000.5,2000.25,2000.29,2000.69,2001.25,2000.73,2000.82,2001.51,2001.62,2000.59,2000.55,2000.66,2000.26,2000.26,1998.44,2000.53,2000.18,2000.3,2000.35,1999.44,2000.18,2000.37,2001.78,1999.21,1998.3,2001.3,2000.29,2000.13,2000.11,2000.11,2000.15,2000.26,2000.77,2001.7,2000.12,2001.76,1999,1999.06,2001.22,1998.7,1997.82,2001.48,2000.46,1999.27,2000.35,2000.54,2001.31,1999.85,1999.36,1997.05,2000.63,2000.8,2000.88,2001.26,1999.4,2002.04,2001.17,1999.79,2000.8,2001.39,2001.02,2001.08,2001.25,2001.6,1999.61,2003.05,2003.21,2004.21,2005.65,2008.55,2012.67,2028.1,2022.75,2024.4,2016.72,1995.91,1997.68,1993.58,1992.05,1994.31,1994.44,1999.76,2006.64,2016.2,2025.6,2017.06,2011.07,2007.71,2005.68,2004.49,2003.82,2004.37,2002.7,2003.75,2005.03,2003.87,2002.49,2001.6,2001.16,2000.91,2000.75,2001.46,2000.98,2000.46,2000.46,2003.57,2000.27,2001.33,2000.59,2000.79,2000.28,2000.28,2000.34,2000.79,2000.56,2000.56,1999.7,1998.17,2000.74,2000.83,2000.33,1998.46,2001.05,2001.68,2000.46,2000.31,2000.4,2003.57
2008.65,2010.08,2008.71,2000.22,1996.95,1999.01,2017.79,2013.85,2021.76,2019.62,2022.79,2023.36,2026.93,2010.53,2014.71,2010.89,2009.28,2018.55,2018.12,2029.47,2025.66,2022.66,2019.54,2017.32,2017.01,2016.49,2017.48,2021.38,2014.71,2013.58,2017.66,2013.03,2008.96,2007.03,2006.16,2004.82,2004.32,2004.07,2004.34,2003.82,2000.28,2002.51,2002.06,2001.86,2002.39,2002.82,1997.22,2002.96,2001.85,2001.6,2001.56,2001.25,2001.15,2001.14,2000.83,2000.7,2000.65,2000.63,1999.63,2000.88,2000.56,2000.52,2000.5,2000.51,2001.64,2000.54,2000.58,2000.81,2001.03,1998.32,2001.26,1999.43,1995.51,2004.64,1999.06,2002.49,1999.98,2004.05,2002.19,2000.39,2001.6,2002.58,2001.51,2001.65,2000.89,2000.52,2001.18,1995.64,2000.72,2000.35,2000.34,2000.38,2000.37,2000.42,2000.54,2000.52,2001.11,2001.09,2001.42,1998.87,2001.71,2001.65,2002.7,2000.87,2004.94,2010.23,2003.87,2003.44,2003.02,2003.34,2001.94,2002.51,2002.32,2003.53,2002.96,2002.56,2001.9,2001.63,2001.4,2001.19,2001.02,2000.91,2000.84,2001.41,2000.93,1998.37,2001.27,2000.58,2001.2,2000.98,1998.51,2000.56,1999.55,2001.54,2000.49,2000.61,2000.44,2000.4,2000.51,2003.95,1998.5,1993.56,1998.37,2001.73,2001.28,2001.83,2001.67,1998.27,2001.86,2002.54,2001.72,2001.34,2001.63,2002.81,2002.35,2001.15,2000.78,2000.43,2000.4,2000.53,2000.7,2000.54,2000.5,2000.32,2000.19,2000.2,1998.46,2000.35,2002.11,1999.29,1997.29,2002.22,2000.44,2001.12,2002.86,2000.19,2000.36,2000.2,2000.14,2000.14,2000.15,2000.19,2000.39,2000.27,2000.18,2000.25,2000.44,2000.83,2001.26,2001.53,2002.73,2005.41,1998.33,1989.02,1985.07,1986.21,1992.09,2003.31,2005.17,2002.18,2001.24,2001.12,1999.68,2000.5,2000.37,2000.36,2000.43,2000.43,2000.34,2000.33,2000.02,2000.29,2000.78,2000.44,2000.25,2000.29,2000.48,2000.39,2000.13,2000.35,1997.55,1996.72,2001.34,2000.26,2000.09,2000.04,2000.04,2000.05,2000.06,2000.22,2001.36,2000.41,2000.28,1999.07,2002.16,2000.22,2000.73,2000.98,2000.52,2000.7,2000.35,2000.41,2000.36,2000.79,2000.55,2000.26,2000.14,2000.12,2000.13,2000.17,2000.16,2000.3,2000.41,2000.67,2001,2001.47,2002.04,2002.1,2001.56,2001.03,2000.91,1999.64,2000.35,2000.26,2000.35,1999.63,2000.3,2000.68,1999.38,2000.39,2000.21,2001.01,1996.09,2001.19,1999.66,2000.53,2000.2,2000.12,2000.1,2000.11,2000.17,2000.38,2000.89,2001.82,2002.01,2000.28,2001.33,2000.59,2001.34,1997.12,1996.27,2001.95,1999.61,2000.33,2000.58,1999.38,2001.24,2000.51,2001.31,2003.61,2000.97,1998.66,2001.14,2001.92,1995.29,1999.06,2001.1,1999.56,2000.89,2001.69,2000.63,2001.35,2001.36,2001.66,2002.26,2002.94,2003.99,2006.47,2007.07,2009.1,2013.03,2020.54,2027.43,2013.66,2002.19,1993.62,1987.67,1984.05,1982.56,1983.15,1985.59,1989.95,1996.57,2005.61,2017.43,2021.54,2011.97,2009.6,2005.16,2005.41,2002.82,2002.21,2002.7,2002.57,2002.3,2001.95,2001.6,2001.31,2001.17,2001.79,2001.5,2000.77,2000.66,2000.56,2000.51,2001.61,2003.53,1998.56,2000.76,2001.08,2000.34,2000.45,2000.73,1995.3,1996.9,2000.75,2001,2001.32,2001.16,1999.09,2000.37,2000.33,2000.44,2001.04,2000.35,2000.33,2000.35,2001.08
2007.77,2011.99,2008.93,2000.79,1997.68,1998.43,2019.94,2014.9,2018.78,2013.02,2017.17,2019,2025.24,2004.54,2008.88,2004.04,2002.34,2005.06,2011.34,2022.96,2021.02,2017.31,2015.49,2014.49,2015.61,2014.5,2015.81,2006.99,2001.29,1994.98,2003.99,2010.93,2010.91,2007.3,2006.46,2004.88,2000.87,2003.47,2002.97,2003.25,2001.48,1999.43,2002.95,2004.07,2001.76,2002.13,2002.89,2002.31,2002.61,2003.34,2001.45,2002.02,2001.3,2000.54,2000.81,2000.72,2000.68,2000.61,2001.67,1998.43,2000.61,2000.66,2000.53,2000.51,2000.49,2000.5,2000.51,2000.96,2000.71,2000.72,2000.81,2001.63,2005.06,2002.4,2002.3,2002.81,1996.99,2000.65,2001.69,2001.1,1997.89,2001.18,2001.1,1998.03,2001.74,2000.78,2000.52,2000.7,1998.47,2000.61,2000.47,2001.1,2001.08,2000.59,2000.47,2000.32,2000.95,2001.02,2001.05,2002.44,2001.63,2002.12,2003.58,2006.36,2005.57,2009.79,2008.64,2006.63,2004.71,2003.92,2003.65,2002.26,2001.95,2002.21,2002.55,2001.7,2001.48,2001.36,2001.25,2001.18,2001.4,2000.87,2000.91,2001.91,1998.36,1999.9,2001.91,2000.64,2000.5,2000.48,2000.69,2000.64,2000.6,2000.59,2000.64,1997.45,2000.76,2000.43,2000.53,2001.65,2002.37,1997.03,2002.32,2001.05,2000.83,2000.77,2001.41,2000.06,2002.43,2000.72,2003.05,2000.8,2006.48,1998.74,2000.27,2002.08,2001.19,2000.81,2000.83,2000,2001.8,2000.53,2000.56,2000.28,2000.21,2000.21,2000.28,2000.28,2000.33,2000.63,2002.39,2000.84,2000.41,1997.38,2001.39,1999.88,1999.09,2000.39,2000.15,2000.22,2000.29,1997.88,2000.22,2000.16,2000.2,2000.32,2000.72,2005.83,2000.32,2006.42,2006.73,2005.12,2008.9,1990.69,1987.58,1991.56,2006.29,2011.04,2006.43,2002.57,2001.54,2002.14,2000.73,1999.11,2001,2001.12,2000.5,2000.16,2001.11,1998.73,2000.21,2000.36,1998.62,2000.99,2003.47,1998.68,2000.55,2000.62,2000.11,2000.21,2001.33,2002.16,2000.04,1997.86,2000.21,2000.04,2000.04,2000.05,2000.09,2000.55,1996.94,2000.83,2000.32,1999.12,2000.84,2000.23,2001.06,1995.75,1995.48,2000.18,2000.34,2000.36,2001.65,1997.71,2001.87,2001.12,2000.27,2000.29,2000.2,2000.19,2000.25,2000.36,2000.59,2003.62,2005.42,2004.2,1995.63,2006.19,2002.31,2002.15,2001.16,2000.69,2000.42,2000.32,2000.4,2001.01,2001.06,2001,1998.84,2000.51,2000.26,2000.39,2000.94,2000.38,2000.45,1999.38,2000.25,2000.13,2000.12,2000.13,2000.36,2000.91,1999.01,1995.71,2001.22,2001.24,1998.49,2000.5,2000.62,2002.56,2004.29,2000.72,2000.32,2000.3,2002.73,1997.46,2001.74,2000.47,2001.03,2000.24,2000.69,2001.34,2001.3,1998.09,2002.99,2001.52,2001.05,2001.06,2001.56,1998.71,1997.07,2001.79,2001.81,2002.13,2002.28,2002.94,2004.56,2005.28,1999.68,2014.38,2015.09,2025,2016.73,2003.41,1993.32,1985.65,1980.22,1976.85,1975.41,1975.89,1978.26,1982.59,1989,1997.68,2008.98,2023.43,2017.77,2011.09,2007.79,2005.73,2004.21,2003.13,2002.51,2003.39,2001.91,2001.85,2001.88,2001.86,2001.69,2001.69,1998.55,2000.94,2000.68,2000.74,2000.51,2001.96,1999.61,2001.47,2000.67,2000.85,2000.59,2002.09,1998.09,2002.24,2001.94,2001.75,2002.51,2001.37,2001.21,2001.01,2000.6,2000.85,2000.58,2000.71,2000.54,2000.57,1999.94,2000.55
