2000.17,2000.11,2000.12,2000.17,2000.45,2000.37,2000.27,2000.33,2000.32,2000.36,2000.81,2002.03,2001.97,2000.81,2000.77,2000.87,2000.98,2001.11,2002.04,2001.35,2000.43,2002.83,2000.83,1995.96,2001.16,2003.39,1999.37,2004.16,2001.04,2000.99,2001.56,2001,2000.6,2000.35,2000.72,2000.49,2000.18,2000.17,2000.17,2000.16,2000.16,2000.32,2000.3,2000.19,2000.44,2000.28,2003.1,1998.66,1996.63,2002.3,2001.01,2000.33,2000.27,2000.31,2000.71,2000.44,1993.54,1996.56,2001.35,2000.51,2000.61,2000.85,2000.77,2000.98,2001.47,2001.4,1993.62,1994.84,2001.49,2001.66,2001.62,2000.29,2000.21,2000.19,2000.18,2000.18,2000.18,2000.19,2000.19,2000.18,2000.18,2000.18,2000.18,2000.19,2000.19,2000.21,2000.47,2000.32,2000.26,2000.21,2000.23,2000.29,2000.25,2000.26,2000.29,2000.37,2001,2001.01,2000.74,2000.61,2000.56,2001.11,1998.24,2002.86,2000.35,1993.74,1997.13,2001.5,2000.59,2000.37,2000.32,2000.3,2000.3,2000.31,2000.5,2000.66,2000.33,2000.4,2001.15,2000.39,2000.34,2000.32,2000.32,2000.33,2000.34,2000.38,2000.49,2000.55,2000.58,2000.48,2000.77,2000.41,2000.35,2000.36,2000.39,2000.57,2000.64,2000.43,2000.43,2000.47,2001.68,2000.54,2000.42,2000.41,2000.47,1999.3,2000.58,2000.42,2000.55,2000.72,2000.43,2000.43,2000.44,2000.44,2000.45,2000.46,2000.47,2000.48,2000.5,2000.52,2000.55,2000.6,2000.57,2000.54,2000.55,2000.57,2000.63,1999.92,2001.49,2000.94,2001.34,2002.22,2003.55,1999.02,2003.78,2001.5,2001.37,2001.09,2001.17,2001.53,2001.22,2000.82,2000.74,2000.76,2000.78,2000.74,2000.71,2000.7,2000.69,2000.7,2000.73,2000.75,2000.76,2000.79,2000.87,2001.01,2001.27,2001.73,2002.42,2003.24,2002.86,2002.31,2001.64,2001.3,2001.14,2001.02,2000.98,2001.16,2001.26,2000.94,2001.26,2000.92,2003.13,2002.96,1999,2001.57,2001.05,2000.97,2001,2000.91,2000.86,2000.82,2000.89,2000.78,2000.83,2001.59,2002.73,2001.27,2000.88,2001,2000.85,2000.68,2001.06,2000.89,2000.8,2000.9,2001.01,2001.87,2003.34,2000.98,1997.78,2003.95,2001.31,2000.8,2000.68,2000.63,2000.6,2000.59,2000.6,2000.63,2000.87,2000.77,2001.12,2000.64,2000.6,2000.63,2000.64,2000.59,2000.59,2000.61,2000.64,2000.61,2000.77,2000.61,2000.6,2000.59,2000.61,2000.69,2001.88,2000.62,2000.65,2002.33,2000.59,2000.58,2000.59,2000.61,2000.71,2001.56,1997.95,1996.79,2001.27,2000.67,2000.65,2001.12,1997.82,2001.43,2001.03,2001.15,2001.45,2000.9,2000.36,2000.52,2000.5,2000.51,2000.53,2000.49,1998.69,2000.5,2000.44,2000.44,2000.43,2000.44,2000.44,2000.48,2000.87,2003.7,2000.17,2000.48,2000.45,2000.43,2000.43,2000.44,2000.51,2000.63,2000.81,2001.05,2001.53,2001.23,2000.56,2000.46,2000.45,2000.49,1999.54,2000.39,2000.39,2000.39,2000.39,2000.99,2000.46,2000.4,2000.41,2000.42,2000.46,2000.51,2000.56,2000.62,2000.77,2001.11,2002.02,2005.59,2000.6,1991.74,1988.74,1990.92,1998.75,2007.26,2003.62,2002.79,2002.24,2002.24,2002.31,2002.66,2003.93,1999.47,2005.81,2006.75,2009.15,2013.12,2019.02,2016.67,2009.77,2011.35,2012.79,2017.38,2018.42,2012.72,2008.92,2006.44,2004.85,2004.08,2000.64,2003.4,2002.53,1998.41,2007.66,2003.47,2002.36,2002.03
1998.43,2000.32,2000.15,2000.26,1997.75,2000.75,2000.27,2000.26,2000.3,2000.37,2000.49,2000.71,2000.87,2000.89,2001.04,2001.24,2001.44,2001.61,2003.27,2002.26,2001.22,2003.88,2003.83,2002.84,2001.91,2001.37,2001.3,2000.97,2000.67,2000.74,2003.8,1996.81,2002.09,2000.41,2000.36,2000.29,2000.19,2000.19,1998.76,2000.19,2000.16,2000.23,1999.6,2000.24,2000.19,2000.32,1997.76,2001,2001.66,2000.58,2000.32,2000.25,2000.24,2000.29,2000.58,2004.91,1997.22,2000.55,2001.04,2000.61,2000.79,2001.14,2001.85,2001.85,2002.55,2003.54,1995.17,1996.22,2002.66,2000.88,2000.75,1999.07,2000.28,2000.2,2000.18,2000.18,2000.22,2000.38,2000.4,2000.23,2000.19,2000.18,2000.19,2000.2,2000.22,2000.21,2000.22,2000.23,2000.22,2000.22,2000.26,1998.36,2000.28,2000.28,2000.33,2000.48,2001.34,2001.89,2005.09,2001.45,2000.85,2001.38,2001.26,2000.95,2002.6,1998.47,2002.32,2001.05,2001.66,2000.39,2000.33,2000.32,2000.33,2000.31,2000.31,2000.32,2000.31,2000.32,2000.36,2000.82,2000.89,2000.33,2000.36,2000.4,2000.36,2000.35,2000.36,2000.41,1998.88,2001.24,2000.38,2000.35,2000.35,2000.39,2000.62,2000.65,2000.47,1999.97,2000.7,2000.82,2001.13,1998.94,2000.44,2000.41,2000.42,2000.46,2000.44,2000.48,2000.91,2000.59,2000.44,2000.44,2000.44,2000.45,2000.46,2000.54,2000.56,2000.49,2000.5,2000.6,2001.05,2000.55,2000.55,2000.55,2000.56,2000.59,2000.62,2000.68,2000.73,2000.79,2000.95,2001.93,2001.96,2002.47,2002.87,2001.07,2000.87,2000.87,2002.46,1997.96,2000.63,2001.07,2000.81,2000.84,2002,2000.99,2000.88,2000.84,2000.78,2000.75,2000.72,2000.74,2000.76,2000.79,2000.85,2000.93,2001.08,2001.45,2001.48,2001.71,2001.46,2001.6,2001.48,2001.35,1999.08,2001.12,2001.07,2001.53,2002.93,2001.16,2001.02,2001.26,2001.65,2003.54,1998.1,2002.11,2001.49,2002.81,2001.34,2003.56,2000.37,2000.95,2000.41,2001.55,2000.96,2000.27,1995.8,2002.02,2000.81,2000.73,2000.69,2000.7,1998.87,2000.86,2001.08,1999.27,2001.25,2001.42,2001.94,2001.85,2002.13,2001.45,2000.94,2000.73,2000.67,2001.14,2000.68,2000.59,2000.59,2000.64,2000.72,2001.31,2000.7,2000.61,2000.58,2000.7,1998.71,2000.6,2000.57,2000.58,1999.72,2000.62,2000.68,2000.72,2002.08,2000.64,2000.59,2000.72,2000.7,2000.58,2000.61,2000.6,2000.57,2000.58,2000.61,2000.61,2000.72,2001.08,2001.69,2000.51,2000.98,2000.63,2000.64,2000.29,2001.76,2000.85,2000.64,2000.88,2001.39,2001.11,2000.65,2000.65,2000.51,2000.55,1998.38,2000.49,2000.47,2000.44,2000.43,2000.43,2000.44,2000.49,2000.57,2000.6,1999.38,2001.63,2001.09,2000.54,2000.48,2000.42,2000.42,2000.54,2000.78,2001.41,2005.26,2002.02,1998.74,2002.7,2000.53,2000.42,2000.39,2000.39,2000.4,2000.44,2000.58,2000.63,2000.45,2000.39,2000.38,2000.48,2000.44,2000.44,2000.46,2000.53,1998.87,2000.62,2000.76,2001.11,2002.02,2005.38,2000.66,1991.8,1988.8,1990.97,1998.81,2007.2,2003.06,2002.06,2001.87,2001.96,2002.27,2003.06,2003.13,2007.07,2005.3,2009.21,2008.04,2008.17,2009.12,2002.3,1998.49,1997.38,1998.99,2002.98,2010.07,2020.58,2013.39,2008.7,2006.06,2004.64,2003.85,2003.97,2003.4,2005.68,2002.96,2002.45,2002.26,2002.17
2000.55,1997.76,2000.3,2000.3,2000.6,2000.45,2000.26,2000.28,2000.34,2000.45,2000.88,2000.74,2000.92,2001.17,2001.48,2001.85,2002.24,2002.58,2002.81,2002.83,2002.72,2003.03,2001.49,2001.8,2001.39,2001.09,2000.89,2000.72,2000.72,2001.04,2002.27,1996.01,2003.38,2000.43,2000.26,2000.22,2000.2,2000.19,2000.23,2000.18,2000.16,2000.17,2000.37,2000.03,2000.19,2000.26,2001.29,2000.51,2001.81,2000.48,2000.4,2000.27,2000.23,2000.26,2000.4,2000.78,2001.83,2001.74,2000.67,2000.81,2001.99,2005.94,2004.87,2006.24,2006.39,2005.13,2007.01,2003.08,2001.24,2001.53,1998.23,2000.44,2000.24,2000.2,2000.19,2000.19,2000.43,1999.73,1997.65,2000.39,2000.21,2000.2,2000.23,2000.53,2000.8,2000.48,2000.21,2000.2,2000.21,2000.21,2000.24,2000.26,2000.27,2000.32,2000.42,2000.69,2001.03,1998.78,1996.67,2004.6,2001.81,2001,2000.69,2000.65,2000.8,2001.08,2000.94,2001.47,2000.7,2000.42,2000.59,2000.4,1998.6,2000.34,2000.31,2000.31,2000.32,2000.33,2000.1,2001.38,2000.42,2000.37,2000.94,1998.94,2000.49,2000.35,2000.35,2000.5,2000.78,2000.43,2000.39,2000.37,2000.37,2000.43,1999.47,1999.11,2000.52,2000.94,1993.67,2002.03,2000.74,2000.52,2000.43,2000.42,2000.43,2000.5,2000.56,2000.49,2000.56,2000.45,2000.45,2000.51,2000.48,2000.46,2000.48,2000.55,2000.56,2000.51,2000.52,2000.59,2000.83,2000.86,2000.85,2000.28,2000.62,2001.16,2000.91,2000.64,2000.68,2000.84,2001.03,2001.14,2001.13,2001.04,2000.98,2000.86,2000.81,2000.84,2001.47,2003.33,2002.62,2001.77,2000.98,2001.09,2002.05,2003.97,2001.46,2001.09,2001.36,2001.22,2000.78,2000.76,2000.78,2000.8,2000.84,2000.89,2001.02,2000.79,2001.7,2001.3,2001.62,2002.36,2003.52,2001.78,2001.37,2001.23,2001.21,2001.23,2001.7,1999.68,2001.16,2001.08,2001.07,2001.16,2001.34,2001.71,2000.43,1998.68,2002.3,2003.09,1999.92,2001.01,2001,2000.93,2000.92,2001.63,2003.22,2001.15,2000.81,2000.77,2000.76,2000.69,2000.74,2000.72,2001.12,1998.55,2001.23,2000.81,2000.86,2000.93,2001,2001.07,2000.96,2000.73,2000.75,1999.6,2000.82,2000.6,2000.59,2000.66,2000.74,2002.18,1998.83,2000.69,2000.59,2000.6,2000.67,2000.57,2000.56,2000.56,2000.57,2000.57,2000.59,2000.86,1999.73,2001.56,2000.69,2000.57,2000.61,2000.57,2000.55,2000.55,2000.56,2000.67,1998.51,2000.66,2001.83,2000.05,2001.18,2000.84,2000.66,2000.58,2000.6,2001.2,2000.89,2000.28,2000.6,2000.58,2000.98,2000.6,1998.69,1998.06,2000.57,2000.61,2000.95,2000.49,2000.44,2000.43,2000.42,2000.42,2000.45,2001.12,1998.52,2001.52,2000.85,2000.67,2000.51,1998.5,2001.23,2000.41,2000.41,2000.52,2000.92,2001.7,1995.56,2000.18,2003.77,2001.24,2000.55,2000.46,2000.46,2000.39,2000.39,2000.68,2003.34,1998.01,2000.75,2000.41,2000.38,2000.41,2000.53,1997.7,2000.78,2000.56,2000.55,2000.59,2000.73,2001.02,2001.71,2003.74,2007.01,1997.34,1994.12,1996.45,2004.97,2005.23,2002.58,2001.85,2001.75,2001.94,2002.55,2003.28,2011.22,2005.27,2010.01,2013,2007.79,2007.87,1998.05,1991.69,1988.11,1987.43,1977.93,1992.46,2007.1,2008.67,2021.23,2011.83,2007.55,2005.33,2002.73,2003.45,2002.88,2002.68,2002.55,2002.56,2002.58,2002.59
2000.16,2000.23,2000.24,2000.36,1999.33,2000.55,2000.28,2000.33,2000.4,2000.52,2000.86,2000.91,2001.2,2001.66,2002.42,2002.94,2003.8,2004.63,2005.16,2005.18,2004.65,2003.75,2002.9,2002.16,2001.61,2001.23,2000.96,2000.77,2000.67,2000.66,2000.79,2001.16,2000.64,2000.35,2000.27,2000.56,2000.24,2000.19,2000.18,2000.18,2000.17,2000.17,2000.18,2000.19,2000.18,2000.24,2000.26,2000.4,2000.62,1999.99,2003.36,2000.43,2000.26,2000.26,2000.48,2000.53,2001.01,2000.71,2000.72,2001.19,1999.13,1998.07,2001.31,1994.46,1994.57,2001.7,2003.63,2001.51,2000.8,2000.54,2000.46,2000.29,2000.23,2000.2,2000.19,2000.2,2000.25,2000.62,2000.86,2000.33,2000.33,2000.27,2000.7,1997.93,2000.96,2000.31,2000.21,2000.21,2000.21,2000.24,2001.51,2000.27,2000.39,2000.6,2001.6,2001.68,2002,2002.08,2001.29,1997.52,2002.61,2002.23,2001.26,2000.21,2000.55,2000.49,2000.46,2000.45,2000.48,2000.52,1997.36,2000.76,2000.37,2000.33,2000.32,2000.32,2000.33,2000.36,2000.5,1998.9,2000.47,2000.41,2001.32,2000.27,2000.48,2000.36,2000.35,2000.39,2000.43,2000.54,1999.2,2000.42,2000.38,2000.4,2000.61,2000.64,2000.48,2000.81,1995.85,1996.95,2001.14,2000.48,2000.43,2000.43,2000.46,2001.49,1998.61,2000.55,2000.46,2000.46,2000.47,2001.11,2000.54,2000.48,2000.49,2000.5,2000.52,2000.55,2000.58,2000.56,2000.57,2000.66,2000.69,2000.76,2000.63,2001.31,2000.81,2000.66,2000.75,2001.48,2001.18,2000.89,2000.83,2000.83,2000.81,2000.8,2000.8,2001.01,2000.95,2000.92,2000.91,2000.88,2000.89,2001.22,1997.8,1999.41,2001.35,2001.38,1999.1,2001.61,2000.83,2000.81,2000.81,2000.82,2000.84,2000.89,2001.01,2000.18,2001.16,2001.15,2001.43,2001.12,1996.86,2003.08,2001.51,2001.44,2001.45,2001.47,2001.53,2003.37,2000.51,2001.22,2001.14,2001.11,2001.18,2002.09,1996.66,1995.12,2005.23,2001.29,2001.09,2001,2000.98,2000.93,2000.95,1998.96,2000.96,2000.84,2001.06,2000.95,2000.99,2000.69,2000.69,2000.69,2000.73,2000.82,2000.75,2000.71,2000.72,2000.89,2000.01,1999.37,1999.25,2000.81,2000.59,2002.21,2000.75,2000.6,2000.59,2000.67,2000.77,2000.85,2001.56,2000.67,2000.91,2000.67,2000.58,2000.62,2000.56,2000.55,2000.55,2000.56,2000.63,1998.18,2000.65,2000.59,2000.57,2000.58,2001.74,2000.59,2000.55,2000.55,2000.56,2000.6,2000.74,2000.63,2001.12,2001.47,2000.69,2001.26,2000.82,2000.57,2000.97,2000.76,2002.13,2000.56,2000.5,2000.49,2000.61,2000.51,2000.51,2000.57,2000.52,2001.06,2000.02,2000.56,2000.44,2000.42,2000.42,2000.41,2000.45,2001.02,1999.29,1999.11,2000.64,2000.42,2000.41,2000.65,2000.51,2000.4,2000.4,2000.47,2000.84,2003.47,1997.04,2001.81,2002.23,2001.54,2000.94,2001.06,1998.7,2000.43,2000.39,2000.5,2003.12,1999.08,2000.81,2000.43,2000.38,2000.38,2000.44,2001.25,1996.86,2000.88,2000.52,2000.57,2000.7,2000.89,2001.32,2002.27,2004.57,2009.94,2006.05,2008.86,2005.07,2003.17,2001.98,2001.67,2001.73,2002.02,2002.91,2003.66,2009.08,2003.43,2007.93,2017.42,2010.21,1999.08,1990.16,1984.17,1980.73,1979.77,1981.25,1984.8,1991.08,2000.25,2012.91,2015.86,2009.18,2006.09,2004.59,2003.64,2003.02,2002.75,2002.88,2004.45,2004.06,2003.83
2000.14,2000.13,2000.15,2001.13,2001.51,2000.46,2000.36,2001.26,2000.57,2000.66,2000.93,2001.26,2001.61,2002.43,2001.83,2004.99,2007.19,2009.81,2011.72,2010.75,2006.81,2006.84,2004.58,2003.1,2002.15,2001.57,2001.22,2000.96,2000.73,2000.58,2000.5,2000.45,2000.38,2000.41,2000.32,2000.52,2000.27,2000.21,2000.21,2000.2,2000.19,2000.18,2000.18,2000.18,2000.19,2000.21,2000.27,2000.39,2001.63,2002.54,1997.81,2000.57,2000.37,2000.33,2000.56,1997.62,2001.47,1999.77,2000.76,2001.41,2002.78,2002.39,1996.9,1990.51,1990.62,1997.26,2004.78,2001.44,2000.7,2000.46,2000.44,2000.32,2000.25,2000.22,2000.23,2000.23,2000.34,2000.43,2000.24,2000.48,1999.37,2000.33,1999.38,2000.35,2000.26,2000.22,2000.21,2000.21,2000.22,2000.24,2000.46,2000.29,1999.81,2001.32,1999.56,2001.42,1997.03,2006.34,1994.31,1991.56,1996.17,2000.64,2001.65,2000.91,2000.72,2000.43,2000.38,2000.43,2000.14,2000.41,2000.97,1998.01,2000.42,2000.34,2000.35,2000.38,2000.55,1999.53,2000.47,1998.69,2000.44,2000.82,2001.02,2000.44,2000.38,2000.36,2000.35,2000.36,2000.37,2000.46,2000.93,2000.42,2000.4,2000.39,2000.41,2000.42,2000.52,1999.42,2000.92,2001.6,2000.95,2000.46,2000.44,2000.44,2000.46,2000.62,2000.9,2000.51,2000.47,2000.47,2000.48,2000.49,2000.5,2000.5,2000.51,2000.52,2000.54,2000.8,1999.4,2000.65,2000.63,2000.88,2002.52,2000.65,2000.61,2000.63,2000.65,2000.69,2000.95,1999.39,2002.14,2002.09,2001,2000.82,2000.8,2000.81,2000.84,2000.92,2000.92,2000.9,2000.88,2000.87,2000.94,2000.95,2001.41,2001.29,2000.99,2001.31,2001.49,2000.98,2000.91,2001,2000.97,2000.88,2000.87,2000.9,2001.02,2001.1,2001.07,2001.14,2001.34,2002.48,2003.78,2002.46,2001.76,2001.82,2001.9,2001.93,2001.94,2001.71,2001.67,2001.53,2001.39,2001.21,2001.2,2001.54,2004.26,2002.33,2001.99,2001.91,2001.12,2001.47,2001.98,2001.28,2001.04,2001.02,2000.88,2000.82,2000.79,2000.75,2000.72,2000.74,2001.29,2000.72,2000.68,2000.68,2000.68,2000.67,2000.67,2000.79,2001.01,2002.15,1999.25,2000.82,2000.82,2001.02,2000.65,2000.6,2000.62,1998.67,2000.74,2000.61,2000.61,2000.66,1998.4,2000.97,2000.59,1999.31,2000.58,2000.58,2000.58,2000.56,2000.57,2000.6,2000.56,2000.54,2000.54,2000.55,2000.78,2000.55,2000.55,2000.63,2000.71,2000.7,1998.49,2000.68,2001.41,2001.02,2000.66,2000.57,2000.54,2000.54,2001.06,2000.67,2001.2,2000.53,2000.48,2000.47,2000.46,2000.46,2000.46,2000.46,2000.52,2001.58,1997.91,2000.61,2000.44,2000.44,2000.44,2000.41,2000.61,2001.32,2000.82,2000.49,2000.41,2000.38,2000.37,2000.41,2000.4,2000.38,2000.39,2000.5,1998.38,2001.05,2002.05,2002.17,1996.9,1997.34,2000.96,2000.59,2000.78,2000.4,2000.38,2000.44,2001.06,1997.84,2001.45,2000.45,2000.38,2000.38,2000.59,2001.13,2001.3,2000.6,2000.5,2000.56,1998.62,2000.79,2001.08,2001.48,2002.13,2003.01,2003.58,2003.32,2002.6,2001.93,2001.59,2001.52,2001.96,2001.4,2002.43,2003.38,2005.66,2012.03,2017.57,2021.59,2005.43,1993.66,1985.28,1979.52,1976.03,1974.99,1976.33,1979.95,1986,1994.87,2007.05,2020.28,2010.69,2006.76,2004.79,2003.74,2003.19,2002.97,2003.43,2001.11,2008.58,2010.22
2000.19,2000.14,2000.15,2000.22,2000.9,2000.3,2000.56,1997.52,2000.84,2000.8,2002.82,2000.11,2002.19,2004.75,2005.48,2011.46,2014.59,2007.44,1993.21,2005.21,2009.12,2014.72,2008.01,2004.69,2002.96,2002.16,2002.16,2001.88,2001.04,2000.65,2000.49,2000.4,2000.35,2001.11,2000.4,2000.25,2000.23,2000.24,2000.31,2000.34,2000.26,2000.21,2000.2,2000.2,2000.21,2000.25,2000.4,2000.6,2000.93,2001.55,2001.26,2000.53,1999.35,2001.54,2000.35,2000.55,2000.84,1999,1999.97,2001.19,2002.33,2004.5,1999.58,1992.92,1993.03,1999.95,2003.81,2001.49,2000.74,2000.46,1998.13,1999.41,2000.6,2000.26,2000.91,2001.15,2000.33,2000.34,2000.2,2000.23,2000.5,2000.25,2000.23,2000.22,2000.21,2000.21,2000.22,2000.22,2000.22,2000.23,2000.24,2000.27,2000.34,2000.1,2000.63,2001.32,2000.16,2004.46,1995.81,1993,1997.68,2002.39,2001.02,1998.01,1999.14,2000.49,2000.36,2000.37,2001.08,2000.42,2000.47,2000.54,2000.46,2000.41,2000.48,1999.4,2000.43,2000.5,2000.41,2000.62,2000.58,2001.03,1998.98,2000.47,2000.38,2000.37,2000.36,2000.37,2000.37,2000.39,2000.41,2000.52,1999.29,2000.42,2000.41,2000.42,2000.5,2001.38,2000.56,2000.95,2000.53,2000.45,2000.44,2000.45,2000.46,2000.49,2000.51,2000.5,2000.49,2000.49,2000.51,2000.52,2000.59,2000.56,2000.53,2000.54,2000.6,2000.76,2000.91,2000.93,2000.97,2000.76,2000.92,2000.66,2000.63,2000.63,2000.66,2000.73,2001.21,1999.79,1998.8,2000.72,2001.37,2000.82,2000.84,2000.88,2000.94,2001.01,2001.06,2001.06,2001.02,2001.04,1998.86,2000.91,2000.89,2000.93,2001.19,2000.29,2001.96,2001.3,2001.3,1997.56,2004.78,2001.07,2000.98,2000.95,2001.9,2000.33,2001.2,2001.19,2001.32,2001.57,2001.9,2002.03,2002.25,2002.55,2002.8,2002.87,2002.74,2002.46,2002.15,2000.09,2002.22,2001.37,2001.26,2001.36,2001.49,2001.4,2001.24,2001.17,2001.35,2002.73,1997.86,2002.53,2001.31,2001.09,2000.96,2000.89,2001.08,2000.81,2000.74,2000.75,2001.45,2000.72,2000.68,2000.67,2000.67,2000.67,2000.66,2000.66,2000.68,2000.74,2000.99,2000.69,2000.66,2000.87,2000.65,2000.61,2000.68,2000.84,2000.61,2000.61,2000.63,2000.62,2000.66,2000.6,2000.57,2000.56,2000.57,2002.03,2002.4,2000.64,2001.95,2000.55,2000.54,2000.53,2000.53,2000.55,2000.56,2000.54,2000.57,2001.73,1998.07,2000.71,2000.83,2000.6,2000.94,2002.44,2001.11,2000.65,2000.54,2000.53,2000.54,2000.51,2000.5,2000.5,2000.48,2000.46,2000.45,2000.45,2000.45,2000.45,2000.5,1999.19,2001.06,2000.57,2000.44,2001.09,2000.4,2000.43,2000.49,2000.51,2001.69,2000.44,2000.37,2000.36,2000.4,2000.7,2000.86,2000.37,2000.37,2000.4,2000.65,2000.59,2000.64,2001.01,1999.69,2000.3,2000.76,2000.43,2000.38,2000.37,2000.39,2000.43,2000.92,1998.14,2001.33,2000.44,2000.38,2000.37,2000.42,2000.49,1999.58,2000.52,2000.47,2000.51,2000.59,2000.67,2000.99,2001.09,2001.27,2001.53,2001.71,2001.69,2001.55,2001.41,2001.35,2001.4,2001.58,2001.9,2002.4,2003.26,2004.73,2007.29,2012.25,2018.02,2002.46,1991.1,1975.89,1975.11,1970.97,1972.89,1974.78,1978.23,1983.64,1992.21,2004.13,2020.18,2011.73,2007.2,2005.02,2003.9,2003.36,2003.26,2003.84,2006.9,2003.77,1998.04
2000.27,2000.16,2000.18,2000.24,2001.31,2000.32,2000.4,2000.77,2000.7,2000.94,2001.94,2004.35,2002.75,2004.48,2008.39,2012.76,2001.66,1995.72,1989.81,1990.2,1986.27,2003.9,2015.43,2007.21,2004.04,2003.27,1998.52,1997.86,2002.01,2000.78,2000.53,2000.42,2000.35,2000.31,2000.28,2000.25,2000.25,2000.33,2001.3,2001.12,2000.54,2000.25,2000.22,2000.23,2000.25,2000.34,1998.42,2001.13,1998.84,1996.11,2002.1,2000.53,2002.43,2001.16,2000.29,2000.3,2000.42,2000.53,2000.59,2000.64,2001.22,2002.79,2006.2,2002.52,2002.65,2005.71,2002.8,1998,2001.42,2000.46,2000.34,2000.36,2001.37,2000.27,2001.38,2000.32,2000.26,2000.2,2000.2,2000.22,2001.18,2000.28,2000.23,2000.22,2000.21,2000.22,2000.78,2000.33,2000.23,2000.24,2000.26,2000.28,2000.33,2000.41,2000.51,2001.62,2000.8,2002.24,2005.82,2002.42,2003.2,2001.26,2000.76,2001.44,2001.13,2000.42,2000.35,2000.37,2000.96,2000.77,2001.13,2000.75,1999.7,2001.42,2000.42,2000.49,2000.86,2000.5,2000.43,1999.97,1999.49,2001.31,2001.17,2000.49,2000.41,2000.39,2000.38,2000.38,2000.38,2000.39,2000.55,2000.64,2001.57,2000.44,2000.43,2000.5,2000.8,2000.56,2000.47,2000.52,2000.47,2000.45,2000.45,2000.46,2000.48,2000.53,2000.65,2000.63,2000.55,2000.53,2000.54,2000.59,1999.52,2000.82,2000.56,2000.56,2000.65,2000.89,2000.99,2000.61,1999.26,2001.24,2000.73,2000.67,2000.78,2000.67,2000.67,2000.75,2001.25,1998.38,1997.43,2001.74,2000.93,2000.84,2000.87,2000.99,2001.16,2001.39,2001.55,2001.55,2001.38,2001.18,2001.04,2000.94,2000.89,2000.93,2001.61,2001.49,1996.17,2003.96,2000.23,1999.21,1999.28,2001.54,1999.52,2000.98,2001.09,2001.32,1998.73,2000.16,2001.43,2001.66,2002.03,2002.56,2003.28,2004.15,2004.91,2005.14,2004.72,2003.89,2003.1,2002.67,2001.9,2001.57,2001.38,2001.37,2001.34,2001.2,2001.19,2001.28,2001.61,2003.3,2001.44,2003.03,2002,2001.44,2001.13,2001.01,1998.93,2000.92,2000.76,2000.74,2000.73,2000.7,2000.69,2000.68,2000.68,2000.7,2000.7,2000.66,2000.65,2000.65,2000.65,2000.67,2000.74,2000.85,2000.77,2000.65,2000.62,2000.62,2000.62,2000.81,2001.31,2000.81,2000.62,2000.59,2000.67,2000.68,2000.56,2001.02,2000.97,2000.77,2000.74,2000.6,2000.55,2000.53,2000.54,2000.79,2001.05,2000.57,2000.58,1998.67,2001.29,2000.59,2000.54,2000.54,2002.6,2001.75,2000.46,2001.14,2000.61,2000.6,1998.58,2000.53,2000.5,1999.38,2000.62,2000.45,2000.44,2000.44,2000.46,2000.69,2000.49,2000.53,2000.51,2000.43,2000.41,2000.53,2000.62,2000.47,1998.92,2000.48,2000.54,2000.43,2000.36,2000.36,2000.77,2001,2000.41,2000.37,2000.36,2000.37,2000.63,2000.49,2000.44,2000.52,2000.71,2000.68,2000.47,2000.38,2000.36,2000.38,2000.58,2000.61,2000.45,2000.57,2000.52,2000.57,2000.38,2000.37,2000.38,2000.39,2000.42,2000.42,2000.44,2000.48,2000.52,2000.59,2000.68,2000.78,2000.91,2001.04,2001.6,2001.51,2001.16,2001.16,2001.21,2001.31,2001.51,2001.84,2002.36,2003.28,2004.56,2007.02,2012.06,2017.76,2002.57,1990.93,1975.48,1974.72,1973.82,1973.26,1975.7,1976.72,1984.5,1992.16,2003.97,2019.99,2012.25,2007.28,2005.1,2003.99,2003.47,2003.46,2004.34,2011.11,1997.97,1992.73
1998.29,2000.24,2000.79,2000.88,2000.36,1999.41,2000.37,2000.46,2000.75,1998.87,2001.92,2002.44,2003.73,2006.29,2013.69,2003.81,1993.4,1987.25,1984.57,1985.35,1985.06,1995.46,2006.6,2004.69,2005.16,2003.91,1997.23,1996.59,2002.35,2000.83,2000.57,2000.46,2000.38,2000.32,2000.29,2000.26,2000.27,2000.41,1999.89,1996.11,2000.91,2000.29,2000.25,2000.27,2000.34,2000.48,2000.75,2000.81,2001.86,2001.85,1998.35,2000.59,2000.57,2000.35,2000.26,2000.29,1998.86,2000.31,2000.36,2000.46,2001.49,2002.75,2002.35,2002.61,2002.56,2001.82,1999.8,1998.74,2001.23,2000.81,2000.7,2000.28,2000.24,2000.25,2000.29,2000.28,2000.21,2000.2,2000.21,2000.22,2000.27,2000.47,2000.44,2000.26,2000.22,2000.22,2000.26,2000.25,2000.24,2000.29,2000.74,2000.54,2000.58,2001.11,2001.22,2000.65,2000.68,2000.93,2001.26,2001.27,2001.8,2000.86,2001.1,2000.55,2000.43,2000.38,2000.36,2000.36,2000.49,2000.18,1997.4,1998.78,2003.18,2000.92,2000.46,2000.73,1996.86,2000.95,2000.43,2000.63,2000.66,2000.48,2000.68,2001.45,2000.62,2000.43,2000.45,2000.42,2000.4,2000.41,2000.83,2000.55,2000.49,2000.15,2000.5,2000.72,1996.94,2001.05,2000.48,2000.46,2000.46,2000.46,2000.47,2000.48,2000.51,2000.72,2000.13,2001.73,2000.67,2000.58,2000.69,2000.95,2001.25,2000.9,2000.62,2000.59,2000.61,2000.69,2001.52,1997.75,1996.51,2001.59,2000.85,2000.77,2000.63,2000.72,2000.69,2000.74,2000.92,2001.49,2001.6,2001.03,2000.9,2000.88,2000.96,2001.19,2001.65,2001.56,2003.53,2003.45,2002.48,2001.66,2001.24,2001.03,2000.96,2000.93,2001.12,2002.71,1997.24,2002.83,2001.31,2001.36,2001.35,2001.17,2001.04,2000.98,2001.02,2001.11,2001.28,2001.44,2001.58,2001.95,2002.58,2003.66,2005.5,2008.4,2011.92,2012.79,2008.49,2007.42,2004.98,2003.93,2002.4,2001.84,2001.55,2001.54,1999.92,2001.28,2001.28,2001.5,2002.19,2004.28,2007.7,2006.82,2004.71,2002.26,2001.43,2001.12,2001.11,2000.91,2000.79,2000.77,2000,2000.74,2000.71,2000.7,2000.74,2001.41,2002.6,2000.71,2000.67,2000.96,2000.67,2000.78,2001.37,2000.81,2002.03,2000.78,2000.63,2000.6,2000.65,2001.94,1996.3,2001.84,2000.74,2000.91,2000.7,2000.64,2000.6,2000.61,2000.7,1998.16,2003.06,2000.1,2000.6,2000.53,2000.53,2000.73,2002.35,2000.55,2000.53,2000.61,2000.56,2000.53,2000.52,2000.53,2000.62,2001.06,2003.51,2001.93,2001.16,2000.61,2000.63,2000.5,2000.48,2000.55,2000.48,2000.45,2000.44,2000.44,2000.52,1998.54,2000.54,2000.42,2000.41,2000.4,2000.4,2000.44,2000.4,2000.42,2001.08,2000.58,2000.44,2000.36,2000.35,2000.35,2000.38,2000.41,1998.26,2000.39,2000.46,2000.56,2000.53,2000.48,2000.38,2000.39,2000.41,2000.41,2000.39,2000.38,2000.36,2000.36,2000.61,2000.45,2000.38,2000.39,2000.54,1999.48,2000.42,2000.38,2000.37,2000.38,2000.39,2000.41,2000.42,2000.45,2000.49,2000.53,2000.59,2000.66,2000.74,2000.84,2001.3,2001.5,2001.01,2001.03,1999.99,2001.28,2001.47,2001.79,2002.31,2004.14,2004.36,2007.24,2011.09,2020.52,2004.86,1993.07,1984.8,1979.08,1975.62,1975.12,1977.69,1978.77,1987.75,1994.5,2006.54,2021.3,2011.13,2007,2005.01,2003.98,2003.51,2003.53,2004.96,2010.18,1998.77,1993.46
2000.35,2000.47,1998.86,2000.77,2000.64,2000.63,2000.38,2000.51,2000.74,2001.32,2002.62,2002.2,2005.37,2007.89,2013.61,1998.73,1988.9,1982.91,1980.22,1980.97,1984.45,1990.82,2001.56,2013.96,2005.96,2003.5,2003.38,2002.92,2001.35,2000.81,2000.66,2000.6,2000.48,2000.37,2000.31,2000.28,2000.28,2000.33,2000.7,2001.08,2000.44,2000.29,2000.28,2000.47,2001.16,2001.18,2002.69,2002.22,2001.03,2000.79,2000.67,2000.57,2001.21,1997.9,2000.33,2000.24,2000.27,2001.85,2000.35,2000.37,2000.48,2000.64,2000.81,2000.97,2001.02,2000.89,2000.87,2001.06,2001.08,1999.86,1999.49,2000.3,2000.23,1999.43,2000.81,2000.51,2000.21,2000.21,2000.25,2000.26,2000.39,1998.35,1999.12,2000.35,2000.23,2000.22,2000.23,2000.23,2000.25,2000.3,2000.72,1999.39,2002.13,2004.05,1999.61,2000.67,1998.42,2000.63,2001.17,2000.6,2000.76,2000.05,1997.16,2000.63,2000.39,2000.47,2000.75,2000.37,2000.45,2001.18,2003.88,1998.02,2001.03,2000.54,2000.52,2000.69,2000.84,2000.54,2000.43,2000.42,2000.43,2000.47,2001.46,1996.27,2001.23,2000.54,1999.09,2000.81,2000.43,2000.43,2000.48,2000.8,2001.1,2001.58,2000.48,2000.53,2000.89,2000.6,2000.54,2000.52,2000.48,2000.48,2000.49,2000.5,2000.54,2000.84,1998.71,2000.14,2001.11,2000.66,2001.57,1996.97,2002.23,1998.23,2000.71,2000.64,2000.64,2000.69,2002.48,2001.62,2001.86,2001.19,2002.33,2001.51,2000.83,2000.86,2000.73,2000.76,2001.05,2001.81,2001,2001,1999.08,2000.99,2001.69,2001.62,2002.68,2007.35,2002.09,2001.84,2007.51,2002.79,2000.31,2001.17,1999.27,2000.98,2000.99,2001.25,2001.56,2001.25,2001,2000.97,2001.08,2001.52,2001.06,2001,2001.05,2001.16,2001.49,2002.05,2001.93,2002.33,2003.4,2005.63,2010.93,2008.2,1986.36,2001.07,2002.97,2010.23,2008.98,2004.84,2003.05,2002.18,2001.77,2000.53,2001.5,2001.36,2001.47,2002.05,2003.38,2003.61,1995.63,1995.01,2001.53,2003.99,2002.07,2001.47,1998.37,2001.39,2000.83,2000.78,2000.82,2000.75,2000.73,2000.81,2000.43,2001.45,2001.53,2000.73,2000.68,2000.92,2000.75,2000.08,2004.07,1995.27,1999.68,2000.9,2000.65,2000.61,2000.64,2001.5,2002.05,2001.03,2001.12,1996.97,2000.99,2000.63,2000.29,2000.56,2000.63,2001.09,2001.03,2002.11,2000.73,2000.53,2000.52,2000.53,2000.54,2000.52,2000.51,2000.52,2000.52,2000.52,2000.52,2000.69,2000.68,1998.99,2000.61,2000.77,1998.93,2000.93,2000.55,2000.51,2000.48,2000.46,2000.45,2000.44,2000.44,2000.57,2000.64,2000.9,2000.44,2000.41,2000.39,2000.39,2000.4,1999.11,2000.42,2000.39,2000.46,1998.19,2000.89,2000.36,2000.34,2000.34,2000.37,2000.44,2000.72,2000.37,2000.41,2000.45,2000.41,2000.4,2000.36,2000.38,2000.38,2000.38,2000.54,2000.81,2000.39,2000.35,2000.36,2000.36,2000.37,2000.39,2000.41,2001.02,2000.46,2000.55,2000.37,2000.37,2000.39,2000.42,2000.42,2000.43,2000.46,2000.5,2000.54,2000.59,2000.66,2000.83,2003.05,1998.51,2000.96,2000.95,2001.08,2001.2,2001.56,2002.03,2002.19,2002.86,2003.99,2006.11,2009.5,2017.37,2010.08,1997.98,1989.24,1983.33,1979.98,1979.1,1980.73,1984.41,1990.41,1999.45,2012,2016.73,2009.64,2006.43,2004.76,2003.88,2003.49,2003.48,2004.06,2006.29,2006.44,2000.47
2000.51,1998.19,2002.78,2000.5,2000.83,2001.52,2000.41,2000.52,2000.74,2001.34,2007.19,1998.08,2005.75,2008.12,1998.78,1997.5,1987.76,1981.81,1979.12,1979.58,1984.17,1989.64,2000.28,2015.18,2006.19,2003.32,2002.12,2001.47,2001.03,2000.85,2001.23,2002.31,2001.03,2000.47,2000.35,2000.33,2000.36,2000.31,2000.33,2000.34,2000.31,2000.3,2000.32,2000.45,2000.91,2002.05,1993.89,1995.51,2002.41,2000.65,2000.39,2000.31,2000.32,2000.52,2000.27,2000.23,2000.25,2000.9,2000.14,2000.4,2001.76,2000.42,2000.47,2000.65,2000.28,2001.29,2000.66,1999.44,1997,2000.77,2000.41,2000.25,2000.22,2000.27,1998.58,2000.28,2000.23,2000.22,2000.28,2000.29,2000.41,2003.14,2001.35,2000.31,2000.23,2000.23,2000.23,2000.24,2000.25,2000.3,2000.58,2000.02,2001.72,2001.12,2000.64,2000.46,2001.65,2000.65,2000.43,2000.43,2000.44,2000.52,2000.68,2001,2000.46,2000.57,2000.43,2000.38,2000.4,2000.48,2000.6,2000.71,2000.64,2000.7,2000.8,1998.6,2000.66,2000.52,2000.48,2000.46,2000.45,2000.46,2000.68,2000.81,2000.87,2001.31,2001.1,2000.58,2000.47,1999.72,2000.57,2000.27,1998.95,2000.84,2000.49,2000.47,2000.49,2000.57,2000.73,2001.34,2000.52,2000.52,1999.14,2000.55,2000.59,2001.38,2000.17,2000.8,2000.77,2000.66,2001.13,1999.93,2001.19,2000.84,2000.83,2003.01,2000.78,2000.67,2000.71,2000.79,2000.85,2001.35,1996.59,1999.58,2000.95,2000.52,2000.75,2000.79,2001.88,1997.25,2001.2,2001.08,2001.39,2001.01,2003.15,2002.54,2004.38,2000.22,1993.69,1990.42,1999.82,2004.76,2001.94,2001.28,2001.07,2000.97,2000.95,2000.97,2001.08,2000.45,2000.95,2000.95,2001.01,2002.7,2001.04,2001.03,2001.09,2001.25,1999.2,2002.68,2002.24,2002.75,2004.44,2008.89,2006.88,1997.11,1992.72,1990.52,1992.77,1999.27,2010.81,2007.1,2003.85,2002.55,2001.95,2001.77,2001.58,2001.41,2001.55,2002.19,2004.36,1999.34,1991.89,1991.32,1997.46,2005.82,2003.57,2002.07,2001.36,2001.01,2000.86,2000.82,2000.81,2000.8,2000.78,2000.8,1999.13,2000.87,2000.79,2000.68,2000.66,2000.66,2001.33,2000.81,2001.22,2002.81,2001.66,2000.8,2000.69,2000.65,2000.65,2000.68,1999.08,2000.67,2000.72,2001.26,2000.73,2000.58,2000.56,2000.55,2000.6,2000.83,2000.63,1999.74,2000.88,2000.53,2000.51,2000.51,2000.55,2000.83,2000.53,2000.53,2001.72,2000.57,2000.56,2001.33,2000.68,2000.78,2000.78,2000.74,2000.95,2000.8,2000.64,2000.55,2000.51,2000.48,2000.45,2000.43,2000.44,2000.42,2000.63,2000.37,2000.44,1999.56,2000.41,2000.39,2000.59,2001.07,2000.64,2000.64,2000.61,1999.59,2000.42,2000.35,2000.34,2000.35,2000.94,2000.63,2001.03,2000.35,2000.34,2000.33,2000.34,2000.35,2000.39,2001.57,2000.55,2000.38,2001.42,1997.75,2000.46,2000.35,2000.36,2000.38,2000.41,2000.45,2000.48,2000.48,2000.51,2000.43,2000.38,2000.38,2000.44,1999.08,2000.42,2000.46,2000.45,2000.48,2000.51,2000.55,2000.66,1998.25,2000.85,2001.18,2000.86,2000.05,2001,2001.15,2002.4,1999.97,2002.07,2002.62,2003.56,2005.08,2007.72,2012.78,2018.66,2005.83,1996.64,1990.47,1986.99,1986.54,1987.68,1991.5,1997.85,2007.39,2020.71,2012.67,2008.09,2005.73,2004.44,2003.75,2003.42,2003.4,2003.7,2004.53,2006.21,2008.32
2000.49,1999.02,2001.91,1998.92,2001.26,2001.04,2000.43,2000.53,2000.86,2001.49,2003.12,2005.61,2005.35,2007.01,2014.68,1999.86,1989.88,1983.82,1981.08,1981.46,1985.02,1991.76,2002.63,2013.07,2006.3,2003.08,2001.89,2001.28,2000.95,2000.94,2001.34,1995.3,2001.79,2000.67,2000.6,2000.67,1998.24,2000.38,2000.32,2000.33,2000.33,2000.33,2000.36,2000.45,2000.87,2000.91,1992.96,1994.54,2001.42,2000.72,2000.38,2000.31,2000.28,2000.26,2000.24,2000.23,2000.23,2000.37,2000.53,2000.36,2000.77,2000.32,2000.34,2000.51,1998.89,2001.53,2000.68,2002.12,2002.55,2000.46,2000.27,2000.23,2000.21,2000.21,2000.23,2000.35,2001.43,2000.33,2000.26,1998.52,2000.92,2000.87,2000.3,2000.25,2000.23,2000.23,2000.24,2000.25,2000.27,2000.32,2001.13,1999.63,2000.83,1998.43,2000.62,2002.07,2000.93,2000.49,2000.39,2000.39,2000.39,2000.4,2000.42,2000.69,2001.01,1998.04,2001.11,2000.48,2000.4,2000.42,2000.47,2000.57,2000.89,2000.55,2002.18,2001.69,2000.95,2000.67,2001.15,2000.62,2000.52,2000.5,2000.54,2001.48,2001.01,1997.15,2001.57,2000.48,2000.45,2000.5,2000.53,2001.05,2002.22,2000.99,2000.57,2000.48,2000.48,2000.57,2000.28,2001.47,2000.54,2000.51,2000.59,1998.79,2001.51,1999.03,2000.79,2000.61,2000.61,1999.73,2000.69,2000.74,2000.78,1999.09,2001.07,1997.75,2000.94,2000.68,2000.69,2000.83,2002.05,2000.94,2002.02,2001.43,2000.83,2000.77,2000.76,2000.79,2000.93,2001.17,2001.14,1999.63,2000.93,2000.99,2001.23,2001.9,2004.99,1998.26,1992.14,1989.26,2004.69,2006.4,2002.3,2002.1,2001.18,2001,2000.96,2000.95,2000.96,2000.96,2000.96,2000.97,2000.98,2001.01,2001.02,2001.06,2001.14,2001.34,2001.58,2001.72,2002.14,2003.1,2005.45,2014,2000.34,1991.03,1986.06,1984.81,1987.11,1993.24,2004.01,2009.76,2004.64,2002.99,2002.27,2001.83,2001.58,2001.47,2001.53,2001.92,2003.65,2002.64,1994.79,1994.19,2000.7,2005.76,2001.31,2000.14,2001.33,2000.98,2000.9,2000.91,2001.25,2000.99,2000.94,2000.85,2000.79,2000.74,2000.71,2000.68,2000.67,2000.66,2000.66,2000.68,2000.74,2000.81,2000.78,2000.99,2002.57,2000.89,2001.13,2000.86,2000.7,2000.62,2000.59,2000.6,1999.58,2000.59,2000.55,2000.56,2000.84,2000.78,2000.58,2000.58,2000.55,2000.52,2000.51,2000.51,2000.66,2000.13,2000.56,2000.53,2000.8,1998.21,2000.63,2000.94,2000.81,2000.81,2000.85,2001.12,2001.64,2002.22,2001.04,2000.67,2000.71,2001.31,2000.47,2000.44,2000.43,2000.43,2000.42,2000.41,2000.41,2000.55,2000.4,2000.39,2000.74,1999.79,2000.56,2000.45,2000.4,2000.43,2000.38,2000.36,2000.34,2000.34,2000.54,2000.47,1999.14,2000.35,2000.33,2000.32,2000.33,2000.34,2000.39,2000.39,2000.59,2000.36,2000.44,2000.52,2000.37,2000.35,2000.37,2000.42,2000.53,2000.73,2001.22,2000.76,2000.59,2000.5,2000.4,2000.38,2000.39,2000.41,2000.43,1998.65,2000.48,2000.95,2000.71,2000.59,2000.56,2000.64,2000.67,2000.93,2000.79,2000.91,2000.94,2001.09,2000.93,2001.72,2001.92,2002.44,2003.15,2004.27,2006.12,2009.24,2014.9,2017.12,2007.2,2000.6,1996.92,1997.94,2014.22,2015.38,2008.72,2018.82,2014.66,2009.46,2006.63,2005.02,2004.09,2003.57,2003.35,2003.33,2003.56,2004.04,2004.49,2005.13
2000.22,2000.51,2000.38,2000.32,2000.27,2000.31,2000.41,2000.53,2002.7,1998.46,2001.55,2002.29,2003.27,2005.48,2011.49,2004.51,1995.44,1989.09,1986.22,1986.59,1990.2,1997.38,2008.84,2009.44,2004.86,2002.68,2001.7,2001.16,2000.88,2000.84,2002.32,1998.46,2002.07,2000.68,2000.98,2000.47,2000.65,2000.39,2000.42,2000.46,2000.39,2000.4,2000.42,2000.48,2000.7,2001.66,2001.68,2003.65,2001.17,2000.57,2000.4,2000.33,2000.3,2000.27,2000.25,2000.24,2000.23,2000.24,2000.25,2000.24,2000.24,2000.25,2000.28,2000.37,2000.42,2000.39,2000.98,1997.75,2000.5,2000.29,2000.24,2000.22,2000.22,2000.22,2000.22,2000.51,1998.91,2000.43,2000.25,2000.38,2000.3,2000.26,2000.25,2000.24,2000.24,2000.24,2000.25,2000.27,2000.3,2000.33,2000.34,2000.38,2000.39,2000.43,2000.39,2000.41,2000.6,2000.48,2000.42,2000.39,2000.39,2000.39,2000.4,2000.4,2000.45,2000.53,2000.81,2000.48,2000.42,2000.45,2000.53,2000.74,2003.41,2002.44,1996.59,1999.78,2001.93,2000.95,2001.68,2000.98,2000.77,2000.61,2000.57,2000,2001.06,2000.77,2000.58,2000.47,2000.45,2000.47,2000.54,2000.63,2001.72,2000.47,2000.58,2000.49,2000.49,2000.51,2000.6,2000.8,2000.53,2000.51,2000.53,2000.57,2000.67,2001.26,2001.6,2000.61,2000.61,2000.68,2000.63,2000.63,2000.67,2000.74,2000.73,2000.82,2000.73,2000.7,2000.7,2000.73,2000.76,2000.77,2000.82,2000.81,2000.78,2000.78,2000.97,2000.86,2000.83,2000.86,2000.88,2000.9,2000.92,2001,2001.39,2001.78,2003.53,2003.55,1996.3,1996.59,2004.37,1997.91,2003.18,2001.16,2001.2,2001.03,2001,2000.98,2000.97,2000.98,2001,2001.11,2001.08,2001.1,2001.07,2001.12,2001.22,2002.56,1999.36,2002.52,2002.4,2003.61,2005.95,2012.93,1998.21,1989.09,1984.24,1984.07,1988.88,1991.33,2001.83,2005.98,2005.18,2002.89,2002.41,2003.16,2001.91,2001.57,2001.55,2001.76,2002.49,2004.98,2005.43,2004.7,2005.81,2003.28,2000.78,2003.04,2001.24,2001,2000.95,2001.04,2000.89,2001.91,2001.83,2001.17,2000.87,2000.76,2000.72,2000.7,2000.7,2000.69,2000.68,2000.67,2000.67,2000.67,2000.69,2001.51,1997.64,2001.82,1997.18,1998.23,2000.95,2000.3,2000.79,2000.66,2000.57,2000.55,2000.54,2000.57,2001.88,2001.39,2000.95,2000.57,2000.53,2000.51,2000.51,2000.51,2000.6,2001.16,2000.62,2000.52,2000.54,2000.66,2000.76,2001.27,2004.37,2002.24,2001.41,2000.23,2000.67,2001.36,2002.2,2000.91,2000.64,2000.71,2000.68,2000.44,2000.41,2000.41,2000.4,2000.4,2000.4,2000.39,2000.39,2000.39,2000.41,2000.46,1999.65,2000.46,2000.41,2000.15,2000.59,2001.18,2000.41,2000.34,2000.35,2000.35,2000.38,2000.33,2000.32,2000.32,2000.33,2000.36,2000.44,2000.39,2000.35,2000.34,2000.36,2000.37,2000.36,2000.36,2000.39,2000.51,2000.9,2002.2,1999.97,2001.98,2000.7,2000.84,2000.45,2000.39,2000.42,2000.51,2000.45,2000.43,2000.44,2000.59,2000.67,2000.56,2000.52,2000.56,2000.6,2000.65,2000.71,2000.78,2000.88,2001.01,2001.31,2001.51,2002.23,2001.72,2003.19,2003.72,2004.82,2006.71,2009.71,2012.97,2018.54,2014.38,2010.32,2009.75,2011.38,2012.44,2021.33,2014.17,2009.85,2007.17,2005.51,2004.39,2003.76,2003.41,2003.28,2003.32,2003.57,2003.2,2004.27,2004.78
2000.17,1999.27,2000.39,2000.2,2000.23,2000.47,2000.01,2000.49,2000.72,2001.04,2001.19,2001.7,2002.81,2004.06,2007.32,2015.2,2005.01,1998.1,1994.98,1995.36,1999.25,2007.05,2012.53,2006.32,2003.6,2002.22,2001.47,2001.04,2000.79,2000.69,2000.76,2000.88,2000.64,2000.45,2000.43,1998.58,2000.44,2000.45,2000.57,2000.71,2000.5,2000.51,2000.61,2000.57,2000.63,2000.99,2001.35,2001.03,2000.71,2000.58,2000.55,2000.39,2000.33,2000.3,2000.27,2000.24,2000.23,2000.22,2000.22,2000.22,2000.22,2000.22,2000.26,1998.33,2000.38,2000.27,2000.34,1999.25,2000.29,2000.24,2000.29,2000.24,2000.38,2001.15,2000.25,2000.25,2000.32,2000.2,2000.37,2000.28,2000.23,2000.28,1999.33,2000.24,2000.24,2000.25,2000.26,2000.29,2000.65,2001.14,2000.37,2000.34,2000.34,2000.36,2000.37,2000.39,2000.63,1998.77,2000.73,2000.42,2000.42,2000.42,2000.41,2000.42,2000.43,2000.43,2000.42,2000.42,2000.85,2000.76,2001.09,2001.42,2002.16,1997.28,1992.2,1995.13,2003.07,2001.41,2002.13,2001,2001.86,2000.93,2000.64,2000.84,2000.55,2000.49,2000.48,2000.47,2000.47,2000.48,2000.61,2000.61,2000.67,2000.63,2000.53,2000.5,2000.5,2000.52,2000.76,2001.27,2000.53,2000.53,2000.54,2000.55,2000.6,2000.99,2000.85,2000.65,1999.34,2000.64,2000.64,2000.65,2000.66,2000.67,2000.69,2000.7,2000.71,2000.71,2000.72,2000.73,2000.75,2000.77,2000.78,2000.78,2000.78,2000.8,2001.15,2001.16,2000.91,2001.78,2000.95,2000.89,2000.94,2001.37,2001.17,2001.44,2002.16,2004.07,2008.12,2005.37,2004.89,2003.7,2001.98,2001.3,2001.13,2001.11,2000.9,2001.11,2001.01,2001.03,2001.12,1999.04,2001.49,1998.92,2001.16,2001.6,2001.53,2001.65,2002.16,2001.81,2002.24,2002.7,2005.61,2013.48,2000.22,1990.98,1986.13,1987.91,1986.95,1993.25,2004.1,2010.49,2004.94,2004.83,2002.41,1997.38,2002.84,2001.68,2001.59,2001.66,2001.9,2002.38,2002.97,2003,2002.4,2001.87,2001.64,2001.36,2001.12,2001.01,2001,2001.22,2002.56,1997.95,1998.13,2002.32,2001.02,2000.81,2000.75,2000.98,2000.98,2000.95,2000.77,2000.71,2000.68,2000.66,2000.67,2000.75,2000.9,2001.01,2001.32,2001.08,2000.68,2000.63,2002.37,2000.98,2000.56,2000.55,2000.55,2000.56,2000.58,2000.74,1998.52,2000.61,2000.52,2000.51,2000.51,2000.51,2000.55,2000.58,2001.23,2000.54,2000.52,2000.6,1999.36,2000.63,1995.39,1997.47,2002.2,2000.92,1993.26,1995.41,2003.18,2001.2,2000.86,2001.57,2001.65,2000.46,2000.41,2000.41,2000.42,2000.44,2000.44,2000.44,2000.45,2000.41,2000.42,2000.62,2001.92,2001.01,2000.47,2000.53,2000.47,2001.15,2000.43,2000.34,2000.35,2000.34,2000.33,2000.33,2000.32,2000.32,2000.33,2000.52,1997.65,2000.42,2000.34,2000.35,1995.92,2000.71,2000.47,2000.38,2000.42,2000.64,2001.77,1997.71,1994.37,1999.89,2001.67,2000.95,2000.46,2000.42,2000.65,1998,2000.86,2000.42,2000.41,2000.43,2000.45,2000.5,2000.53,2000.53,2000.57,2000.61,2000.67,2000.74,2000.84,2000.95,2001.11,2001.53,2002.35,1997.93,2003.01,2003.09,2002.42,2004.96,2006.6,2008.9,2012.59,2014.64,2016.86,2017.98,2017.67,2015.11,2011.67,2009,2006.98,2005.59,2005.08,2003.87,2003.47,2003.28,2003.23,2003.34,2003.57,2003.91,2004.36,2004.92
2000.16,2000.18,2000.18,2000.19,2000.22,2000.35,2000.51,2000.45,2000.56,2000.73,2001.1,2001.52,2001.99,2002.94,2004.88,2005.71,2014.13,2006.64,2008.28,2008.66,2013.07,2011.27,2006.8,2004.3,2002.78,2001.82,2001.26,2000.97,2000.77,2000.6,2001.73,2000.69,2000.45,2000.43,2000.45,2000.57,2000.64,2001.23,2000.69,2000.71,2000.72,2000.72,2000.35,2000.8,2000.72,2000.97,1999.37,1999.49,2000.74,2000.84,2000.68,2000.47,2000.4,2000.34,2000.3,2000.26,2000.24,2000.22,2000.22,2000.21,2000.21,2000.21,2000.23,2000.67,2000.28,2000.23,2000.24,2000.28,2000.24,2000.25,1999.8,2000.26,2000.49,2001.12,2000.27,2000.24,2000.27,2000.98,2000.34,1998.79,2000.25,2000.24,2000.26,2000.24,2000.25,2000.26,2000.27,2000.31,2000.69,2000.7,2000.38,2000.34,2000.35,2000.37,2000.38,2000.4,2000.43,2000.51,2000.5,2000.5,2000.51,2000.48,2000.46,2000.48,2000.91,2000.51,2000.44,2000.44,2000.46,2000.52,2002.46,2001.16,2001.48,2001.31,1995.82,1998.98,2002.3,2002.23,1998.91,1995.56,2000.02,2001.65,2000.78,1999.13,2000.58,2000.49,2000.5,2000.52,2000.54,2000.54,2000.61,2001.34,1998.64,2001.12,2000.54,2000.51,2000.51,2000.53,2001.32,2000.63,2000.55,2000.55,2000.56,2000.57,2000.59,2000.73,1999.6,2000.69,2000.69,2000.65,2000.65,2000.66,2000.68,2000.69,2000.7,2000.72,2000.73,2000.74,2000.75,2000.76,2000.8,2001.22,2000.83,2000.81,2000.82,2000.83,2000.93,2000.68,2000.98,1999.8,2001.04,2000.92,2000.97,2000.74,2001.13,2001.22,2001.5,2001.94,2002.4,2002.52,2002.13,1999.83,2001.45,2001.21,2001.25,2001.85,2002.12,2001.16,2001.07,2001.23,2001.44,2001.67,2001.41,2001.27,2001.19,2001.8,2002.2,2001.37,2001.47,2001.68,2002.09,2002.9,2004.74,2009.56,2006.68,1997.1,1992.99,1991.95,2001.31,1999.28,2011.23,2007.96,2004.35,2003.09,2003.46,2002.13,2002.34,2001.78,2001.68,2001.67,2001.72,2001.8,2001.86,2001.81,2001.65,2001.46,2001.32,2001.47,2001.15,2001.04,2001.09,2000.02,2005.29,1994.94,1995.07,2005.76,2001.1,2000.83,2000.78,2000.9,2001.89,1997.74,2001.26,2000.59,2000.81,2000.67,2000.77,2000.84,2000.66,2000.65,2000.66,2000.64,2000.62,2001.05,2000.72,2000.59,2000.56,2000.56,2000.58,2000.6,2000.6,2000.59,2000.6,2000.54,2000.52,2000.51,2000.51,2000.51,2000.53,2001,2002.18,2000.57,2000.53,2000.63,2000.9,2002.04,1998.34,2000.61,2001.89,2001.75,1994.13,1994.98,2004.36,2001.19,2001.63,1997.22,2000.79,2000.46,2000.42,2000.43,2000.64,2001.54,2002.39,2001.48,1999,2000.59,2000.44,2001.03,1996.16,2000.38,2000.56,2000.53,2000.7,2000.49,2000.38,2000.37,2000.36,2000.38,2000.34,2000.33,2000.32,2000.32,2000.32,2000.38,2000.53,2000.38,2000.33,2000.35,2000.61,1997.06,2001.15,2000.4,2000.49,1999.5,2002.15,2003.15,1992.98,1998.32,2001.43,2000.59,2000.6,2000.96,2000.58,2000.8,2000.67,2000.41,2000.4,2000.41,2000.45,2002.34,2001.06,2000.53,2000.54,2000.59,2000.65,2000.76,2000.87,2000.92,2001.05,2001.37,2000.85,2003.66,2003.73,2002.87,2003.09,2003.75,2004.71,2005.9,2007.2,2008.45,2009.34,2009.74,2009.48,2008.62,2007.64,2006.25,2005.26,2004.45,2003.85,2003.47,2003.25,2003.17,2003.22,2003.39,2003.67,2004.08,2004.62,2005.32
2000.22,2000.22,2000.2,2000.2,2000.27,2000.32,2000.38,2000.43,2000.51,2000.64,2001.41,2001.13,2001.48,2002.13,2003.62,2005.66,2004.48,2005.34,2005.89,2008.69,2007.32,2005.57,2004.42,2003.22,2003.31,2001.59,2001.09,1999.12,2001.1,2000.54,2000.6,2000.49,2000.43,1998.59,2000.79,2000.57,2001.7,2000.07,2001.13,2001.24,2001.24,2001.13,2001.03,2000.98,2001,2001.05,2002.72,2001.16,2000.97,2000.86,2000.75,2000.63,2000.51,2000.41,2000.34,2000.29,2000.25,2000.23,2000.22,2000.21,2000.2,2000.2,2000.2,2000.23,2000.24,2000.24,2000.23,2000.24,2000.37,2000.5,2000.28,2000.24,2000.25,2000.26,2000.33,2000.57,2000.47,2000.25,2000.24,2000.25,2000.56,2000.26,2000.25,2000.25,2000.26,2000.29,2000.31,2000.31,2000.34,2000.37,2000.36,2000.36,2000.38,2000.4,2000.44,2000.5,2000.46,2000.52,2000.79,2000.96,2001.72,2001.05,2000.61,2000.55,1999.21,2000.62,2000.48,2000.48,2000.49,2000.5,2000.54,2000.62,2000.88,2001.66,2002.55,2002,2001.39,2003.35,1996.1,1992.37,1996.86,1999.56,2000.85,2000.59,2000.52,2000.51,2000.61,2001.06,2001.15,2000.06,2002.46,2000.74,2000.87,2000.9,2000.55,2000.53,2000.53,2000.54,2000.56,2000.62,2001.65,2000.58,2000.58,2000.59,2000.61,2000.63,2000.64,2000.65,2000.66,2000.66,2000.67,2000.69,2000.7,2000.71,2000.74,2000.77,2000.81,2000.78,2000.78,2000.81,2000.54,2001.29,2000.86,2000.84,2000.85,2000.87,2001.13,2000.69,2000.94,2001.08,2001.3,2000.98,2000.96,2000.99,2001.03,2001.11,2001.22,2001.36,2001.46,2001.48,2001.45,2001.51,2001.35,2001.2,2002.26,1997.94,2001.37,2001.24,2001.14,2001.48,2003.2,1999.24,2003.28,2001.58,2001.23,2001.34,1998.89,2001.52,2001.43,2001.61,2001.94,2002.54,2004.24,2003.36,2011.71,2008.8,2008.93,2010.23,2004.57,2010.04,2005.55,2002.51,2003.79,2002.77,2002.44,2002.66,2002.14,2001.95,2001.87,2001.82,2001.78,2001.81,2001.7,2001.6,2001.51,2001.38,2001.27,2001.45,2001.16,2001.12,2001.2,2001.44,2002.15,1999.04,2002.94,2001.87,2001.02,2000.84,2000.83,1998.98,2001.58,1999.51,2001.29,2001.08,2000.85,2000.7,2000.67,2000.66,2000.64,2000.64,2000.67,2000.63,2000.62,2001.06,2000.78,2000.58,2000.57,2000.6,2000.69,2000.95,2000.89,2000.68,2000.59,2000.55,2000.52,2000.51,2000.5,2000.5,2000.53,2000.86,1999.22,2000.77,2000.56,1998.88,2000.6,2000.78,2001.14,2001.11,2001.1,2002.13,2004.13,1999.84,2001.86,2000.93,2000.03,2003.06,2000.6,2000.44,2000.43,2000.68,2001.9,2001.32,2000.9,1997.98,2001.54,2000.47,2000.42,2000.6,2001.57,2000.95,2000.58,2001.16,1997.78,2000.93,2000.44,2000.39,2000.46,1999.52,2000.41,2000.33,2000.32,2000.32,2000.32,2000.35,2001.66,2001.02,2000.34,2000.34,2000.42,2001.22,2000.76,2000.42,2000.45,2000.95,2001.18,2004.42,2000.41,2002.8,2000.91,2000.51,2000.44,2000.49,2002.1,2001.12,2000.51,2000.4,2000.4,2000.41,2000.43,2000.59,2000.65,2000.5,2000.52,2000.57,2000.65,2001.27,2000.55,2001.02,2001,2001.27,2002.15,2003.11,2003.38,2004.62,2002.53,2002.93,2003.56,1997.81,2005.57,2004.4,2006.28,2006.8,2006.44,2005.99,2005.74,2004.71,2004.29,2004.17,2003.38,2003.24,2003.1,2003.1,2003.23,2003.47,2003.82,2004.3,2004.95,2005.79
2000.54,1999.83,2000.28,2000.23,2000.3,2000.62,2001.09,2000.47,2000.5,2000.57,2000.7,2000.89,2001.35,2001.62,2002.24,2004,2004.09,2004.07,2004.32,2004.18,2003.76,2003.23,2002.21,1995.95,1998.81,2001.49,2000.9,2000.71,2000.57,2000.5,2000.55,2000.43,2000.42,2000.51,1998.73,2000.84,2001.03,2001.51,2002.3,2002.97,2002.86,2002.21,2001.71,2001.81,2001.99,2001.82,2001.92,2002.27,2001.64,2001.37,2001.17,2001.48,2000.88,2000.52,2000.39,2000.32,2000.27,2000.24,2000.23,2000.22,2000.21,2000.2,2000.2,2000.23,2000.47,2000.54,2000.29,2000.39,2001.09,1999.49,2000.81,2000.37,1999.27,2000.29,2000.84,1996.91,2000.62,2000.26,2000.23,2000.24,2000.6,2001.33,2000.35,2000.27,2000.28,2000.65,2001.46,2000.32,2000.34,2000.35,2000.37,2000.39,2000.41,2000.44,2000.61,1999.27,2000.54,2000.7,1998.2,2000.8,1996.9,2003.16,2000,2000.56,2001.65,2000.6,2000.57,2000.69,2000.65,2000.54,2000.52,2000.55,2000.65,1999.29,2000.89,2000.9,2000.99,2001.92,2002.27,1997.61,2002.72,2001.41,2000.72,2000.57,2000.54,2000.59,2000.93,1997.26,1997.85,2001.27,1999.64,2000.7,2000.78,2000.63,2000.55,2000.54,2000.56,2000.61,2000.68,2000.64,2000.98,2000.63,2000.66,2000.62,2000.77,2001.54,2000.67,2000.83,2001.34,2000.69,2000.7,2000.71,2000.73,2000.75,2000.8,2001.01,2000.01,2000.83,2000.82,2000.84,2000.92,2000.89,2000.88,2000.88,2000.89,2000.9,2000.92,2000.94,2000.96,2001.79,1998.01,2001.1,2000.98,2000.99,2001.02,2001.06,2001.12,2001.17,2001.21,2001.23,2001.23,2001.99,1999.1,2001.32,2001.44,2001.43,2001.19,2001.13,2001.18,2001.61,1999.46,1995.9,2004.4,2003.87,2001.28,2001.28,2001.93,2001.79,2001.42,2001.55,2001.8,2002.2,2002.92,2004.16,2006.1,2010.33,2009.65,2010.79,2012.31,2008.2,2005.7,2004.23,2003.13,2002.63,2002.42,2002.36,2000.99,2002.39,2002.23,2002.23,2002.06,2000.31,2001.95,2001.7,2002.25,2001.78,2001.31,2001.28,2001.75,2001.63,2002.04,2001.72,2001.36,2002.78,2000.78,2001.14,2000.92,2000.83,2000.81,2000.94,2000.87,2000.96,1998.14,1996.82,2002.16,2000.78,2000.68,2000.66,2000.66,2000.71,1998.5,2000.67,2000.62,2000.63,2000.59,2000.58,2000.65,2001.32,2001.09,1998.21,2000.56,2001.42,2000.8,2000.6,2000.54,2000.51,2000.51,2000.51,2000.54,2000.88,1999.06,2000.78,2000.51,2000.51,2000.52,2000.55,2000.6,2000.64,2000.71,2000.92,2001.49,2000.93,2000.94,2000.66,2000.81,2000.54,2000.46,2000.42,2000.43,2000.05,2000.58,2000.46,2000.45,2000.54,2000.47,2000.4,2000.41,2000.44,2000.49,2000.55,2000.73,2001.31,2002.5,2001.05,2000.57,2000.43,2000.39,2000.42,2000.35,2000.33,2000.32,2000.32,2000.32,2000.36,2000.49,2000.43,2000.33,2000.33,2000.37,2000.89,2003.26,2000.68,2000.44,2002.11,2000.63,2000.91,2001.08,2000.83,2000.56,2000.43,2000.39,2000.44,2001.7,2000.76,2000.76,2000.44,2000.44,2000.4,2000.41,2000.44,2000.46,2000.48,2000.51,2000.55,2000.65,2001.33,2000.52,2001.38,2001.07,2001.06,2001.23,2002.1,2000.73,2002.36,2002.08,2002.36,2002.79,2003.91,1999.57,2004.76,2005.24,2006.01,2005.9,2005.15,2004.39,2003.9,2003.8,2003.29,2003.11,2000.25,2003.15,2003.15,2003.27,2003.56,2003.99,2004.57,2005.33,2006.33
2003.86,2001.52,2000.5,2000.29,2000.36,2000.96,2000.94,2000.62,2000.58,2000.57,2000.62,2000.74,2001.11,2001.73,2001.81,2001.3,2002.1,2002.32,2001.83,2002.4,2002.2,2002.01,2002.35,2001.61,2002.92,2001.09,2000.74,2000.59,2000.51,2000.47,2001.07,2000.44,2000.45,2000.5,2000.65,2000.86,2001.45,2003.1,2008.06,2006.21,2006.79,2005.97,2003.18,2000.87,1998.91,2008.14,2008.4,2003.39,2003.3,2001.84,2002.09,1997.67,2002.95,2000.65,2000.46,2000.36,2000.3,2000.26,2000.24,2000.37,2000.38,2000.21,2000.21,2000.27,2001.73,2001.69,2000.4,2000.93,2000.46,2001.18,1997.39,1999.98,1998.94,2000.82,2000.67,2000.7,2000.32,2000.24,2000.23,2000.25,2000.3,2000.34,2000.31,2000.3,2000.32,2000.38,2000.36,2000.34,2000.35,2000.38,2000.41,2000.43,2000.45,2000.5,2000.84,2001.35,2000.66,2000.88,2001.52,2001.34,2002.57,2001.01,2000.67,2000.6,2000.65,2000.62,2000.33,2002.14,2001.95,2000.73,2000.55,2000.54,2000.55,2000.59,2000.62,2001.13,2000.39,2000.97,2001.47,2001.83,2001.35,2000.84,2000.69,2000.81,2000.77,2000.35,2000.84,2002.13,2002.08,2000.77,2000.61,2000.63,1998.26,2000.84,2000.56,2000.56,2000.59,2001.33,1998.53,2000.7,2000.82,2001.08,1999.93,2000.67,2000.73,2001.36,2000.84,2000.76,2000.87,2000.73,2000.73,2000.74,2000.76,2000.8,2000.99,2000.44,2001.61,2000.9,2000.88,2000.89,2000.89,2000.91,2000.98,2000.97,2000.95,2000.95,2000.95,2000.96,2000.98,2001.08,2001.21,2001.03,2001,2001.01,2001.03,2001.06,2001.1,2001.15,2001.18,2001.17,2001.18,2001.54,2002,2001.28,2001.4,2001.71,2001.16,2001.16,2001.21,2001.41,2002.42,2004.68,2002.29,2001.51,2001.27,2001.25,2001.33,2001.39,2001.4,2001.51,2001.69,2001.95,2002.33,2002.92,2003.76,2004.97,2006.52,2006.66,2005.59,2004.6,2003.77,2003.17,2002.81,2002.66,2002.65,2002.74,2002.88,2002.89,2003.3,2000.56,2002.66,2002.31,2002.1,2002.68,1999.71,2002.5,2001.39,2001.28,2001.38,2004.7,1997.03,2003.31,2001.16,2001.11,2001.09,2000.95,2000.88,2000.83,2000.8,2000.79,2000.79,2000.84,2001.57,1997.78,2003.25,2000.8,2000.7,2000.69,2000.7,2001.08,2000.44,2000.74,2000.7,2000.32,2000.59,2000.59,2000.63,2000.81,2001.16,1998.71,2001.04,1998.21,1999.22,2001.94,2000.6,2000.52,2000.52,2000.53,2000.65,2001.02,2000.77,2000.56,2000.5,2000.48,2000.49,2000.5,2000.52,2000.53,2000.56,2000.6,2000.66,2000.67,2000.59,2000.52,2000.48,2000.45,2000.42,2000.41,2000.41,2000.44,2000.42,2000.4,2000.4,2000.4,2000.4,2000.42,2000.59,2000.06,2000.46,2000.61,2001.39,2001.58,1998.79,2002.97,2000.86,2000.49,2000.4,2000.38,2000.44,2000.38,2000.43,2000.42,2000.36,1999.09,2000.42,2000.35,2000.35,2000.35,2000.36,2000.79,1996.93,2001.46,2000.46,2002.09,2000.51,2000.67,2000.52,2000.48,2000.43,2000.41,2000.42,2000.39,2000.41,2000.62,1998.74,2000.63,2000.48,2000.4,2000.4,2000.42,2000.44,2000.46,2000.49,2000.54,2000.63,2001,2000.98,1998.25,2001.68,2001.05,2001.16,2001.27,2001.53,2001.67,2001.82,2002.28,2002.26,2002.79,2003.98,2004.4,2007.32,2005.94,2006.17,2007.14,2004.38,2003.62,2000.32,2002.99,2002.81,2002.95,2003.88,2001.61,2003.37,2003.67,2004.17,2004.84,2005.73,2006.92
1994.09,1998.96,2000.88,2000.41,2000.45,2000.75,2001.24,2001.38,2001,2000.71,2000.59,2000.62,2000.77,2001.38,2001.37,2001.9,2001.36,1999.57,2001.61,2001.49,2001.41,2001.31,2001.24,2001.21,2001.01,2000.76,2000.61,2000.51,2000.46,2000.44,2000.46,2000.5,2000.54,2000.58,2000.7,2001.05,2002.15,2007.01,1989.68,1988.29,1995.18,2001.85,2005.77,2004.66,2002.8,2009.14,2009.38,2011.32,2009.27,2003.75,2003.45,2002.31,2001.32,2000.77,2000.53,2000.4,2000.32,2000.28,2000.25,2000.44,2000.49,2000.35,2000.23,2000.25,2000.58,2000.63,2000.65,1999.84,2003.29,2000.55,2001.18,2000.58,2000.45,2000.33,2000.29,2000.26,2000.24,2000.23,2000.24,2000.35,1997.97,2000.32,2000.47,2003.12,2000.46,1997.87,2000.41,2000.36,2000.38,2000.42,2000.54,2000.55,2000.52,2000.6,2001.65,2003.76,2000.79,2001.14,2000.76,2000.79,1999.57,2000.95,2000.71,2000.71,2000.66,2000.66,2000.89,1998.54,1996.81,2001.13,2000.6,2000.55,2000.54,2000.54,2000.55,2000.61,2000.68,2000.69,2000.74,2000.77,2000.71,2000.63,2000.61,2000.64,2000.68,2001.25,2000.63,2000.68,2000.67,2000.61,2000.59,2000.59,2000.65,2000.61,2000.58,2000.58,2000.61,2000.77,2001.04,2000.82,2000.8,1999.54,2000,2000.69,2000.75,2000.14,2001.06,2000.78,1999.92,2000.76,2000.76,2000.78,2000.82,2000.99,2001.17,1999.09,2001.97,2000.95,2001.26,1999.98,2000.95,2000.97,2000.3,2001.45,2001.2,2001.43,2001,2001.01,2001.27,2001.26,2001.04,2001.03,2001.03,2001.04,2001.05,2001.08,2001.13,2001.37,2001.95,2001.32,2001.23,2001.17,2001.18,2001.23,2001.52,2001.39,2001.29,2001.22,2001.27,2001.35,2001.48,2001.57,2002.75,2001.38,2001.28,2001.27,2001.28,2001.32,2001.38,2001.49,2001.99,2002.45,2002.01,2002.44,2002.69,2003.11,2003.47,2003.6,2003.46,2003.2,2002.96,2002.8,2002.78,2002.91,2003.18,2003.54,2003.9,2004.13,2004.14,2003.9,2003.22,2002.96,2002.92,2002.84,2002.01,2001.71,2001.46,2001.33,2001.31,2003.71,2002.79,2001.46,2001.08,2001,2000.95,2000.91,2000.87,2000.85,2000.84,2000.84,2000.82,2000.81,2000.89,2001.09,2000.91,2000.76,2000.75,2000.85,2000.94,2001.06,2001.9,2000.72,2000.63,2000.62,2000.6,2000.59,2000.6,2000.68,2001.26,2000.16,2003.13,2003.06,2001.82,2000.3,2000.61,2000.54,2000.54,2000.56,2001.15,1996.59,2001.76,2000.55,2000.49,2000.48,2000.49,2000.55,2000.62,2000.58,2000.51,2000.5,2000.51,2000.52,2000.7,2000.49,2000.44,2000.43,2000.41,2000.41,2000.46,1999.96,2000.45,2000.41,2000.4,2000.41,2000.49,1999.05,2000.1,2000.44,2000.46,2000.7,2002.5,1996.2,1992.93,1999.27,2001.18,2000.56,2000.55,2000.46,1999.49,2000.72,2000.61,2000.57,2000.47,2000.85,2000.58,2000.39,2000.79,2000.8,2000.36,2000.5,1998.04,2000.78,2000.45,2001.01,2000.59,1998.96,2000.43,2000.44,2000.43,2000.51,1998.24,2000.48,2000.43,2000.59,2000.82,2000.58,2000.44,2000.4,2000.4,2000.41,2000.43,2000.45,2000.48,2000.53,2000.64,2001.02,1998.96,1996.43,2001.92,2001.08,1999.38,2001.11,2001.29,2002.53,2002.05,2001.7,2001.91,2002.29,2003,2005.25,2002.4,1995.47,1995.67,2003.05,2004.95,2003.36,2001.92,2002.67,2002.61,2002.7,2003.08,2003.68,2003.4,2003.79,2004.36,2005.13,2006.15,2007.51
1994.72,1999.74,2000.84,2000.46,2000.66,2001.8,2001.36,1999.57,2003.14,1998.54,2000.65,2000.54,2000.58,2000.68,2000.75,2000.83,2000.91,2000.99,2001.01,2001.02,2001.43,2000.94,2000.87,2000.85,2000.9,2000.77,2000.52,2000.48,2000.43,2000.46,2000.58,2000.83,2001,2000.88,2000.84,2001.21,2002.68,2007.21,1990.41,1988.98,1990.48,1996.68,2008.96,2004.93,2006.64,2008.58,2000.02,1996.94,1998.85,2006.11,2006.31,2002.83,2001.52,2000.91,2000.6,2000.45,2000.49,2000.32,2000.25,2000.24,2000.31,1998.29,2000.27,2000.29,2000.43,2000.41,2000.9,1996.46,1999.47,2000.58,2001.36,2001.78,2000.99,2000.46,2000.52,2000.31,2000.39,2000.24,2000.24,2000.27,2000.37,2000.31,2000.65,2000.17,2000.42,2000.47,2000.38,2000.38,2000.41,2000.45,2000.62,2000.58,2001.12,2000.72,2001.32,1999.1,2000.89,2000.8,2000.82,2000.84,2000.96,2000.87,2000.84,1998.61,2000.81,2000.74,2000.83,2001.82,2003.84,2000.95,2000.69,2000.59,2000.57,2000.55,2000.54,2000.55,2000.98,2000.72,2000.59,2000.58,2000.58,2000.58,2000.65,2000.57,2000.56,2000.58,2000.6,2000.63,2000.64,2000.63,2000.68,2000.81,2000.61,2000.6,2000.6,2000.61,2000.62,2000.7,2001.63,1999.07,2000.98,2000.74,2000.73,2000.74,2000.75,2000.78,2000.76,2000.76,2000.77,2000.78,2000.8,2000.82,2000.87,2001.06,2001.96,2003.4,2001.11,2000.98,2001,2001.04,2001.01,2001.03,2001.09,2001.09,2001.11,2001.11,2001.06,2001.06,2001.1,2001.1,2001.07,2001.07,2001.08,2001.08,2001.09,2001.11,2001.17,2002.54,1997,2001.85,2000.03,2001.17,2001.16,2001.34,1998.24,2001.92,2001.53,2001.34,2001.43,2001.6,2001.72,2001.67,2002.73,2001.42,2001.32,2001.3,2001.31,2001.34,2001.38,2001.64,2000.36,2001.97,2001.81,2001.35,2002.19,2002.35,2002.51,2002.62,2002.41,2002.63,2002.63,2002.74,2002.99,2003.46,2004.2,2005.19,2006.28,2007.05,2007.09,2006.35,2005.31,2004.73,2003.59,2003.55,2002.25,2001.83,2001.58,2001.44,1999.51,2001.29,2001.24,2001.14,2001.08,2001.17,2001,2000.92,2000.9,2000.91,2001,2001.53,2001.08,2000.87,2000.81,2000.78,2000.76,2000.75,2000.87,2003.57,1998.76,2001.2,2000.75,2000.66,2000.63,2000.62,2000.7,2000.61,2000.61,2000.69,2002.4,1997.37,2002.02,2001.3,2001.06,2000.61,2000.55,2000.6,1999.44,2000.62,2000.8,2002.21,2000.91,2000.53,2000.49,2000.49,2000.51,2001.85,1999.98,1998.7,2000.54,2000.48,2000.47,2000.48,2000.16,2000.49,2000.43,2000.42,2000.41,2000.41,2000.46,2001.2,2000.74,2000.53,2000.43,2000.23,2000.63,2000.45,2000.4,2000.4,2000.45,2000.64,2001.76,1998.49,2002.59,2002.83,2000.99,2000.58,1998.43,2001.03,2000.44,2000.39,2000.38,2000.41,2000.94,1996.74,2002.04,2000.45,2000.46,2000.42,2000.41,2000.4,2000.46,2000.41,2000,2001.05,2002.14,2000.42,2000.41,1999.7,2001.25,2001.1,2000.83,2000.49,2000.51,2001.95,1997.12,2000.4,2000.47,2000.4,2000.39,2000.4,2000.42,2000.44,2000.46,2000.54,1999.5,2001.04,2001.3,2001.67,2001.01,2000.87,2000.92,2001,2001.19,2001.27,2001.36,2001.47,2001.68,2002.15,2003,2006.13,2004.72,1992.71,1992.94,2000.03,2005.85,2003.13,2002.74,2002.47,2002.48,2002.6,2002.79,2003.06,2003.41,2003.89,2004.53,2005.39,2006.53,2008.09
2002.26,2001.2,2000.53,2000.45,2000.87,2004.3,1994.06,1992.46,1998.78,2001.59,2000.64,2000.48,2000.48,2000.75,2000.66,2000.61,2000.65,2000.69,2000.71,2000.73,2001.43,2000.72,2000.94,1998.64,1999.58,2001.3,2000.46,1998.56,2000.44,2000.52,2000.99,2005.56,2001.44,2002.47,2001.13,2001.24,2002.53,2008.42,1996.01,1990.87,1991.34,1997.79,2008.71,2007.08,2014.63,1999.13,1991.45,1988.73,1990.49,1997.01,2009.61,2004.32,2002.32,2001.09,2000.67,2000.52,1998.12,2000.42,2000.26,2000.23,2000.23,2000.26,2000.3,1998.86,1998.28,2002.29,2000.54,1998.42,2000.75,2000.48,2001.35,2000.88,2000.47,2000.92,1999.25,2000.38,2000.9,2000.25,2000.24,2000.25,2000.29,2000.86,2000.44,2000.5,2000.38,2000.43,2000.4,2000.42,2000.45,2000.49,2000.53,2000.62,2001.43,2000.89,2000.99,2001.02,2000.94,2000.96,2000.99,2001.01,2001.02,2001,2000.98,2000.98,2000.89,2000.85,2000.84,2000.87,2000.86,2000.83,2000.92,2000.66,2000.69,2000.67,2000.58,2000.55,2000.57,2000.59,2000.55,2000.54,2000.55,2000.65,1996.48,2000.68,2000.58,2000.61,2000.68,2000.82,2000.88,2000.75,2000.76,2000.85,2000.65,2000.63,2000.63,2000.64,2000.65,2000.72,2001.77,1998.59,2001.03,2000.92,2000.85,2001.26,2001.03,2000.8,2000.78,2000.78,2000.81,2000.83,2000.85,2000.89,2000.9,2000.99,2003.22,1999.08,2001.13,2001.05,2001.08,2001.06,2001.11,2001.21,2001.18,2001.35,2001.24,2001.15,2001.14,2001.13,2001.13,2001.13,2001.12,2001.12,2001.13,2001.13,2001.13,2001.14,2001.18,2001.46,2002.28,2001.38,2001.21,2001.19,2001.24,2001.34,2001.42,2001.38,2001.42,1999.91,2001.85,2002.81,2003.77,2002.87,2001.9,2001.51,2001.38,2001.34,2001.35,2001.44,2001.41,2001.46,2001.56,2001.58,2001.66,2001.77,2001.89,2002,2002.11,2002.21,2002.42,2002.4,2002.56,2002.87,2003.44,2004.46,2006.19,2008.96,2012.82,2016.26,2015.86,2013.5,2009.53,2007.13,2005.03,1999.73,2002.88,2001.58,2001.78,2001.53,2001.4,2001.39,2001.23,2001.14,2001.16,1998.21,2001.21,2000.96,2000.94,2001.03,2002.03,1999.43,2002.42,2003.13,2000.86,2000.78,2000.76,2000.78,2001.07,2002.08,1999.45,2001.33,2000.73,2000.66,2000.64,2000.64,1999.71,2000.63,2000.63,2000.69,2001.15,2001.54,2001.73,2000.71,2000.6,2000.56,2000.54,2000.59,2001,2000.82,2000.91,2000.61,2000.55,2000.51,2000.54,2000.72,2000.55,2001.11,2000.83,2000.87,2001.39,2000.49,2000.46,2000.46,2000.45,2000.43,2000.42,2000.42,2000.41,2000.41,2000.44,2001.23,2001.33,2002.08,2000.49,2000.44,2000.41,2000.4,2000.72,2000.46,2000.43,2000.52,2000.83,2001.66,2002.21,2001.27,2000.64,2000.53,2001.17,2001.44,2000.62,2000.45,2000.7,2000.65,2000.94,2000.63,2001.26,2000.43,2000.37,2000.37,2000.81,2000.44,2000.44,2000.45,2000.41,2000.86,2002.49,2000.38,2000.37,2000.52,2001.63,1994.54,2001.76,2000.82,2000.73,2001.92,1997.38,2001.41,2000.47,2000.4,2000.39,2000.39,2000.41,2000.43,2000.45,2000.5,2000.89,2000.7,2000.68,2000.74,2000.76,2000.79,2000.85,2001.05,1999.37,2001.11,2001.18,2001.42,2001.95,2002.21,2003.46,2006.31,2003.62,1996.53,1996.91,2004.78,2004.57,2002.76,2002.39,2002.35,2002.64,2002.62,2002.75,2003.04,2003.45,2003.98,2004.68,2005.62,2006.89,2008.62
2000.57,2000.39,2000.35,2000.41,2000.83,2005.41,2000.66,1993.8,1999.73,2001.41,2000.57,2000.42,2000.41,2001.62,2000.56,2000.47,2000.5,2000.52,2000.53,2000.54,2000.56,2000.59,2000.56,2000.68,2000.5,2000.46,2000.4,2000.38,2000.4,2000.58,2001.82,1996.76,1993.36,1998.97,2001.53,2001.15,2001.92,2003.31,2003.38,1997.62,1998.34,2005.98,2006.66,2001.83,2008.88,1995.32,1987.97,1985.37,1987.08,1993.37,2005.35,2001.97,1999.46,2001.27,2000.74,2000.56,2000.44,2000.32,2000.26,2000.23,2000.22,2000.36,2001.01,2000.37,2000.32,2000.66,2000.31,2000.38,2000.35,2000.45,2001.55,1996.48,1997.47,2001.08,2000.37,2000.29,2000.27,2000.25,2000.25,2000.26,2000.3,2000.6,2000.6,2000.38,2000.45,1998.15,2000.54,2000.5,2000.53,2000.64,2000.61,2000.67,2000.84,1999.33,2002.13,2001.09,2001.14,2001.22,2001.28,2001.31,2001.31,2001.27,2001.21,2001.14,2001.07,2001.01,2000.99,2001,2000.98,2000.9,2000.81,2000.83,2001.7,2002.23,2000.69,2000.57,2000.55,2000.99,2000.9,2000.54,2000.54,2000.59,2000.82,2000.65,2000.62,2000.68,2000.98,2002.99,1999.2,2001.06,2001.1,2000.87,2000.71,2000.68,2000.74,2001.14,2000.69,2000.72,2000.8,2000.87,2000.79,2000.92,2001.42,1997.87,2001.24,2000.91,2000.82,2000.83,2002.31,2001.18,2000.92,1998.71,2000.96,2000.97,2001.08,2001.15,2001.11,2001.95,2000.85,2001.18,2001.37,1998.96,2001.48,2000.42,2002.2,2001.27,2001.23,2001.22,2001.2,2001.19,2001.19,2001.19,2001.19,2001.22,2001.5,2001.2,2001.19,2001.23,2001.25,2001.23,2001.21,2001.22,2001.62,1998.95,2001.33,2001.33,2001.41,2001.69,2002.78,2000.68,1996.48,2000.53,2002.94,2001.74,2001.47,2001.42,2001.4,2001.46,2001.42,2001.44,2001.48,2001.53,2001.59,2001.67,2001.75,2001.84,2001.94,2002.05,2002.22,2002.36,2002.63,2003.15,2004.14,2006.1,2010.18,2013.32,2004.97,2000.86,2000.52,2003.91,2011.42,2011.18,2006.57,2004.55,2003.11,2000.2,2002,2001.67,2001.51,2001.91,2001.32,2001.2,2001.14,2001.18,2001.06,2002.23,2001.05,2001.14,2003.02,1995.87,2002.62,2000.64,2000.9,2000.82,2000.81,2000.8,2001.14,1998.29,2000.39,2000.98,2000.72,2000.67,2000.65,2000.63,2000.63,2000.63,2000.24,2000.83,2000.26,2000.17,1998.9,2000.64,2000.57,2000.55,2000.54,2000.66,1998.19,2002.33,1999.62,2000.57,2000.51,2000.5,2000.7,1997.33,2000.64,2000.06,1999.33,2000.78,2000.95,2000.51,2000.78,2000.65,2000.45,2000.43,2000.42,2000.42,2000.42,2000.49,2000.61,2000.56,2001.07,2001.81,2000.49,2000.41,2000.4,2000.4,2000.55,2000.5,2000.44,2000.44,2000.51,2000.62,2000.66,2000.56,2000.46,2000.51,1999.89,1998.27,1997.75,2000.7,1998.47,1999.95,2000.49,2000.59,1998.91,2000.41,2000.41,2000.46,2000.45,2000.42,2000.64,1998.3,2000.49,2000.38,2000.36,2000.35,2000.4,2000.72,2001.28,1998.22,2001.41,2001.33,2002.1,2001.85,2000.77,2000.56,2000.56,2000.7,2000.39,2000.39,2000.4,2000.42,2000.44,2000.47,2000.56,2000.55,2000.58,2000.63,2000.7,2000.78,2000.87,2001.02,2001.49,2001.03,2001.1,2001.7,1998.68,2001.87,2006.12,1997.46,2002.02,2008.52,2008.78,2005.08,2003.03,2002.39,2002.24,2002.45,2001.64,2002.81,2002.74,2003.06,2003.51,2004.2,2004.84,2005.83,2007.2,2009.06
2000.37,2000.31,2000.34,2000.42,2000.61,2001.43,2004.59,2002.59,2002.23,2000.82,2000.45,2000.36,2000.38,2000.64,2000.4,2000.38,2000.4,2000.43,2000.46,2000.44,2000.49,2000.72,2000.41,2000.39,2000.42,1998.84,2000.49,2000.34,2000.37,2000.55,1999.29,1998.28,1992.76,2000.5,2001.62,2001.02,2001.46,2002.5,2004.33,2006.82,2007,1999.09,2004.52,2001.57,2009.98,1996.32,1988.93,1986.79,1988.53,1998.13,2006.57,2004.86,2002.38,2001.3,2001.2,1999.55,2000.64,2000.32,2000.27,2000.24,2000.22,2000.3,2000.5,2000.37,2000.35,2000.26,2000.23,2000.25,2000.4,2001.12,2000.86,2001.87,2001.41,2000.8,2000.35,2000.67,2000.58,2000.37,2000.26,2000.26,2000.29,2000.4,1998.21,2000.46,2000.46,2001.02,2000.27,2000.98,2000.81,1998.51,2000.71,2000.77,2000.93,2001.69,2001.54,2001.36,2001.49,2001.64,2001.74,2001.79,2001.78,2001.71,2001.6,2001.47,2001.35,2001.27,2001.29,2005,2001.92,2001.69,2001.07,2000.99,1999.36,1999.84,2001.01,2000.65,2000.6,2001.09,2000.62,2000.55,2000.55,2000.56,2000.59,2000.62,2000.67,2000.79,2001.02,2001.86,2003.17,2001.5,2000.39,2001.36,2000.81,2000.74,2000.72,2000.74,2000.76,2002.84,2000.85,2000.74,2000.75,2000.8,2001.29,2002.9,2000.87,2001.06,2000.88,2000.87,2000.93,2000.94,2000.94,2000.99,2000.98,2001.01,2001.05,2001.09,2001.15,2001.62,2001.26,2001.85,2002.12,2002.25,2001.48,2002.16,2001.61,2001.39,2001.35,2001.32,2001.3,2001.28,2001.27,2001.42,2001.43,2001.32,2001.99,2001.25,2001.23,2001.23,2001.25,2001.25,2001.25,2001.26,2001.33,2001.44,2001.33,2001.38,2001.5,2001.79,2003.58,1996.99,1993.1,1996.91,2003.31,2002.11,2001.58,2001.43,2001.58,2001.43,2001.44,2001.47,2001.55,2001.61,2001.58,2001.64,2001.71,2001.8,2001.92,2002.11,1999.26,2002.76,2002.8,2003.51,2005.04,2009.07,2014.21,2001.98,1994.45,1990.71,1990.4,1993.49,2000.28,2011.54,2009.42,2005.49,2003.49,2002.64,2002.15,2001.89,2001.72,2001.57,2001.45,2001.48,2001.2,2001.12,2001.07,2001.1,2001.25,2002.85,2001.75,2002.61,2001.58,2001.04,2000.88,2001.16,2000.06,2000.84,2000.91,2001.33,2001.16,2000.81,2000.71,2000.69,2000.67,2000.66,2000.68,2000.67,2000.82,2001.03,2001.92,2000.62,2000.73,2000.59,2000.56,2000.55,2000.54,2000.59,2001.12,2000.68,2000.6,2000.52,2000.5,2000.5,2000.71,2000.95,2000.52,2000.52,2000.54,2000.48,2000.49,2000.5,2002.01,2000.96,2000.46,2000.44,2000.43,2000.44,2000.46,2000.5,2000.5,2000.46,2000.53,2000.51,2000.44,2000.42,2000.41,2000.41,2000.44,1999.36,2000.81,2000.42,2000.42,2000.44,2000.44,2000.42,2000.39,2000.43,2000.59,2000.65,2000.52,2000.52,2001.07,2000.58,2000.4,2000.4,2000.43,2000.45,2000.68,2001.51,2001.07,2000.54,2000.49,2000.58,2001.76,2000.38,2000.35,2000.35,2000.46,1998.95,2000.73,2001.15,1997.22,1996.26,2002.51,2000.6,2000.54,2000.65,2000.56,2000.52,2000.39,2000.39,2000.4,2000.42,2000.43,2000.46,1999.47,2000.54,2000.55,2000.62,2000.76,2001.04,2001.29,2001.29,2001.17,2001.06,2001.08,1999.42,2001.52,2001.57,2003.15,1998.28,2000.47,2003.65,2003.12,2002.64,2002.3,2002.16,2002.18,2001.97,2002.19,2002.52,2002.73,2003.07,2003.56,2002.96,2004.97,2006.01,2007.48,2009.41
2000.39,2000.38,2000.81,2001.56,2000.66,2000.61,2000.88,2000.96,2000.7,2000.45,2000.34,2000.32,2000.52,1999.98,2000.39,2000.32,2000.34,2000.58,2000.08,2000.82,2000.36,2000.34,2000.34,2000.33,2000.36,2000.66,2000.37,2000.31,2000.33,2000.43,2000.86,2003.34,2005.67,1999.11,2002.4,2001.04,2003.81,2000.47,2002.25,2002.26,2002.63,2002.83,2003.25,2005.1,2010.29,2002.44,1994.49,1991.74,1993.6,2000.48,2009.52,2003.48,2001.73,2001.18,2000.53,2001.59,2000.56,2000.32,2000.56,2000.39,2000.21,2000.22,2000.23,2000.34,2000.74,2000.22,2000.21,2000.23,2000.45,1998.08,2000.71,2000.47,2001.09,2001.04,2000.43,2001.42,2001.14,2000.54,2000.27,2000.27,2000.3,2000.34,2000.47,2001.62,2001.4,2001.23,1999.5,1997.16,2001.56,2000.74,2000.77,2000.89,2001.06,2001.29,2001.53,2001.78,2002.09,2002.63,2002.57,2002.62,2002.59,2002.45,2002.23,2001.98,2001.76,2001.65,2001.89,2003.19,2004.62,2008.05,2001.79,2001.08,2000.99,2000.91,2000.5,2000.78,2000.63,2000.79,2000.6,2000.56,2000.56,2000.57,2000.6,2000.65,2000.75,2000.97,2001.52,2003.61,2001.31,2004.46,2002.02,2001.29,2000.99,2000.85,2000.77,2000.75,2000.82,1999.42,2000.95,2000.75,2000.76,2000.81,2000.95,2001.63,2002.02,2001.6,2000.97,2000.95,2001.15,2001.13,2001,2001,2001.03,2001.1,2001.16,2001.17,2001.21,2001.28,2001.36,2001.71,2001.75,2001.68,2001.62,2001.65,2001.62,2001.57,2001.56,2001.52,2001.42,2001.38,2001.36,2001.39,2001.4,2001.49,1999.58,2001.33,2001.29,2001.28,2001.29,2001.3,2001.3,2001.31,2001.32,2001.35,2001.38,2002.4,2002.21,2001.78,2002.84,2001.69,1997.54,2001.76,2001.98,2002.61,2001.87,2001.57,2001.52,2001.51,2001.51,2001.6,2001.82,2001.95,2001.62,2003.36,2001.79,2001.9,2002.27,2002.65,2001.2,2001.24,2003,2003.85,2005.93,2011.77,2006.6,1995.18,1988.07,1984.52,1984.23,1987.17,1993.59,2004.13,2013.33,2007.27,2003.96,2002.92,2002.51,2002.36,2002.23,2001.98,2001.74,2002.02,2001.32,2001.2,2001.13,2001.09,2001.54,1998.22,2002.67,2001.68,2002.03,2001.06,2000.89,2000.99,2001.44,2000.84,2001.03,1999.01,2001.59,2000.78,2000.75,2001.24,2000.74,2000.88,2001.1,2000.82,2001.93,2002.75,2000.92,2000.73,2000.62,2000.58,2000.56,2000.55,2000.54,2000.54,2000.55,2000.54,2000.52,2000.51,2000.5,2000.5,2000.54,2000.53,2000.48,2000.47,2000.46,2000.46,2000.47,2001.23,2001.6,2000.53,2000.5,2000.47,2000.46,2000.49,2001.56,2001.44,2000.5,2000.5,2000.65,2000.46,2000.44,2000.45,2000.45,2000.45,2000.46,2000.49,2000.55,2000.42,2000.4,2000.4,2000.39,2000.39,2000.39,2000.44,2000.72,2000.45,2000.4,2000.45,2000.67,2000.46,2000.44,1999.57,1998.11,2001.07,2001.7,1995.81,1998.95,2000.82,1999.02,2000.53,2000.59,2000.84,2000.38,2000.35,2000.39,2001.49,1997.89,2000.67,2001.33,1998.18,2001.36,2000.52,2001.14,2002.82,2001.64,2000.5,2000.41,2000.42,2000.43,2000.44,2000.44,2000.45,2000.47,2000.5,2000.54,2000.62,2000.95,2000.58,2003.36,2006.24,2002.36,2001.31,2001.06,2001.28,1999.12,2002.12,2001.67,2002.34,2002.4,2000.76,2002,2002,2002.35,2002.49,2002.42,2002.38,2002.38,2002.47,2002.73,2003.08,2003.56,2004.2,2005.02,2006.17,2005.64,2009.7
1999.11,2000.89,1999.43,1995.73,2001.42,2000.4,2000.38,2000.39,2000.36,2000.3,2000.27,1999.6,2000.82,1996.86,2000.52,2000.28,2000.28,2000.51,2000.49,2000.42,2000.3,2000.29,2000.3,2000.38,2000.82,2000.38,2000.52,2000.39,2000.3,2000.34,2000.45,2000.64,2000.76,2001.1,2000.81,2000.98,1998.89,1996.05,2002.07,2001.22,2001.52,2001.88,2001.79,2002.64,2004.64,2003.97,2005.92,2002.4,2004.5,2010.39,2004.58,2002.31,2001.37,1999.45,1999.24,2000.56,2000.41,2000.32,2000.63,2000.42,2000.22,2000.21,2000.21,2000.23,2000.22,2000.2,2000.2,2000.21,2000.25,2000.34,2000.3,2000.34,2000.5,1999.43,2000.69,2000.55,2000.3,2000.27,2000.27,2000.29,2000.81,2000.44,2000.48,1999.61,2001.31,2000.78,2000.73,2001.45,2000.87,2000.76,2000.87,2001.05,2001.31,2001.64,2002.07,2002.55,2003.13,2001.19,2004.12,2004.17,2004.1,2003.79,2003.9,2002.82,2002.37,2002.21,2002.92,1999.91,1994.27,1996.59,2003.56,2001.31,2000.89,2000.8,1999.36,2001.41,2000.73,2000.61,2000.58,2000.57,2000.58,2000.59,2000.64,2000.71,2000.85,2001.25,2002.68,2004.75,1997.87,2001.89,2005.05,2002.02,2001.64,2001.23,2000.91,2000.99,2000.78,2000.8,2000.78,2000.77,2000.79,2000.88,2001.71,2002.66,1997.59,1999.97,2001.08,2001.12,1999.2,2000.57,2001.12,2001.06,2001.11,2002.08,2001.29,2001.29,2001.33,2001.41,2001.53,2001.9,2002.46,2001.89,2001.98,2002.02,2001.99,2001.88,2001.92,2001.91,2001.6,2001.55,2001.52,2001.67,2001.88,2001.66,2001.59,2001.39,2001.35,2001.34,2001.35,2001.35,2001.36,2001.36,2001.37,2001.39,2001.42,2001.58,2001.66,2001.69,2002.16,2003.48,2004.97,2004.81,2003.36,2000.99,2002,2002.2,2001.78,2001.95,2001.75,2003.5,2000.61,2001.62,2001.65,2002.15,2002.35,2002.5,2001.41,1998.91,2002.45,2004.82,2003.06,2004.06,2006.51,2004.33,2003.24,1992.14,1985.2,1981.72,1981.44,1984.31,1990.58,2000.83,2016.36,2004.87,2004.37,2003.29,2003.57,2004.27,2004.45,2003.46,2002.35,2001.78,2001.52,2001.36,2001.23,2001.15,2001.17,2001.52,2000.43,1995.05,2001.57,2001.18,2000.95,2000.99,2000.9,2000.82,2001,1999.67,2001.45,2000.77,2000.75,2001.46,2000.74,2000.95,1999.82,2000.94,2000.87,2001.22,2000.84,2000.63,2000.6,2000.58,2000.57,2000.56,2000.55,2000.54,2000.54,2000.53,2000.53,2000.54,2000.69,2000.52,2000.49,2000.48,2000.47,2000.47,2000.48,2000.46,2000.47,2000.8,2000.96,2000.69,2000.99,2000.67,2000.52,2000.59,2001.71,2002.08,2000.84,1999.81,2000.55,2000.5,2000.5,2000.51,2000.52,2000.52,2000.51,2000.52,2000.47,2000.43,2000.41,2000.4,2000.4,2000.48,1999.47,2000.52,1999.36,2000.99,2000.48,2000.43,2000.54,1998.9,2000.75,2000.75,1999.88,2000.5,2001.27,1998.15,2001.6,2000.94,2000.89,2000.88,2000.74,2000.63,2000.43,2000.37,2000.37,2000.53,2000.77,2000.43,2000.48,2000.8,2000.63,2000.49,1997.37,1995.81,1998.97,2000.58,2000.44,2000.52,2000.62,2000.56,2000.47,2000.44,2000.45,2000.48,2000.52,2000.63,2001.53,2003.93,1996.6,1994.74,1999.53,2001.92,2001.07,2000.98,2001.08,2001.99,2001.25,2001.38,2001.52,2001.62,2001.7,2001.89,1997.14,2003.71,2004.93,2003.81,2002.48,2002.49,2002.97,2003.15,2003.58,2004.23,2005.08,2006.26,2008.4,2010.57
2001.35,2000.75,2003.2,1999,2000.87,2000.3,2000.27,2000.4,2000.49,2000.26,2000.22,2000.26,2000.33,2000.56,2000.29,2000.24,2000.24,2000.26,2000.28,2000.27,2000.27,2000.28,2000.31,2000.74,1998.23,2000.53,1997.69,2001.33,2000.28,2001.65,2000.58,2000.35,2000.38,2000.41,2000.43,2000.58,2001.35,2002.07,2001.02,2000.82,2001.2,2001.5,2001.28,2001.77,2003.85,2000.73,2006.1,2003.28,2007.04,2003.95,2002.42,2001.54,2001.05,2001.24,2001.06,2001.61,2000.66,2000.5,2000.57,2000.26,2000.22,2000.21,2000.2,2000.2,2000.2,2000.21,2000.22,2000.21,2000.22,2000.23,2000.24,2000.51,2000.2,2000.33,2000.69,2001.25,2000.31,2000.28,2000.27,2000.3,2000.58,2000.41,2000.38,2000.47,2000.58,2000.6,2000.57,2000.64,2000.71,2000.82,2000.99,2001.26,2002.3,2002.52,2003.63,2003.06,2005.03,2006,2006.96,2007.48,2007.31,2006.49,2005.5,2004.21,2003.32,2002.19,2003.57,1998.44,1992.89,1995.26,2007.01,2001.45,2000.92,2000.85,2000.06,1998.4,2001.99,2000.86,2000.61,2002,2000.61,2000.62,2000.82,2001.27,2001.59,2002.02,2004.63,1997.35,1992.26,2006.38,2002.61,2003.64,1997.95,2001.71,2001.17,2001.49,2000.82,2000.8,2000.8,2000.8,2000.82,2000.94,2001.31,1997.85,2001.77,2001.5,2001.04,2001.16,2001.72,2001.56,2001.24,2001.13,2001.19,2001.45,2001.62,2001.39,2001.47,2001.59,2001.75,2002.06,2003.08,2002.47,2002.81,2003.17,2002.76,2002.48,2002.18,2001.95,2002.37,2002.43,2002.34,2004.6,1997.82,2002.81,2000.89,2002.1,2001.42,2001.41,2001.43,2001.44,2001.43,2001.43,2001.43,2001.45,2001.48,2001.53,2001.59,2001.69,2001.99,2003.4,2003.04,1998.59,2002.98,2003.29,2003.24,2001.82,2002.01,1998.06,2003.39,2001.7,2001.67,2001.63,2001.69,2002.55,1998.7,2000.74,2000.91,1998.33,2003.2,2002.62,2003.02,2004.06,2006.47,2013.78,2003.69,1990.27,1985.65,1982.1,1981.81,1984.69,1990.99,2001.27,2015.9,2007.1,2004.43,2003.73,2005.57,2003.88,2000.02,1996.59,2004.11,2002.42,2002.08,2001.83,2001.49,2001.25,2001.15,2001.27,2002.61,2000.28,2002.25,2001.16,1999.32,2001.17,2000.92,2000.83,2000.83,2000.88,2000.82,2000.75,2000.73,2000.72,2000.7,2000.71,2000.74,2000.89,2000.75,2000.66,2000.63,2000.61,2000.59,2000.58,2000.57,2000.57,2000.56,2000.55,2000.55,2000.55,2000.55,2000.61,1998.59,2000.56,2000.49,2000.48,2000.48,2000.52,1999.67,2000.53,2000.47,2000.53,2000.94,2001.93,1996.51,2001.99,2000.69,2001.45,2002.03,2000.97,1999.1,2000.76,2000.52,2000.41,2000.82,2000.71,2000.69,2000.69,2000.66,2000.6,2000.53,2000.47,2000.44,2000.44,2000.49,2000.54,2000.59,2000.46,2000.58,2002.44,2000.51,2000.6,2001.8,2002.38,2000.76,2000.43,2000.4,2000.41,2000.58,2000.96,2001.04,2001.41,2002.73,2003.19,2001.72,2000.83,2000.53,2000.42,2000.38,2000.36,2000.36,2000.35,2000.37,2000.41,2000.45,2000.48,2000.63,2001.17,2000.88,2000.48,2000.53,2001.2,2002.39,2001.6,2000.61,2000.46,2000.44,2000.46,2000.51,2000.62,2001.32,2002.51,1996.45,1992.86,1997.55,2002.13,2001.05,2000.9,2000.92,2001.04,2001.57,2001.21,1999.95,2002.33,2000.55,2002.06,2003.55,1998.64,2001.02,2006.18,2002.82,2002.53,2002.19,2003.28,2003.6,2004.41,2005.43,2006.32,2010.45,2010.21
2000.23,2000.37,2000.44,1999.71,2000.34,2000.37,2000.27,2001.16,1997.87,2000.29,2000.19,2000.19,2000.2,2000.21,2000.21,2000.2,2000.2,2000.21,2000.22,2000.24,2000.31,2000.47,2000.43,2000.6,2000.44,2000.36,2000.48,2000.34,2000.24,2000.26,2000.27,2000.26,2000.28,2000.3,2000.32,2000.38,2000.48,2000.56,1999.06,2000.64,1999.72,2000.22,2001.38,2000.97,2004.39,2003.32,2003.17,1998.93,2003.13,2002.02,2001.58,2001.35,2001.01,1999.22,2001.32,1996.38,2001.28,2000.56,1998.64,2000.31,2000.24,2000.22,2000.2,2000.2,2000.2,2000.24,1998.67,2000.26,2000.22,2000.22,2000.23,2000.25,2000.27,2000.26,2000.3,2000.33,1999.99,2000.62,2000.28,2000.3,2000.32,2000.34,2000.37,2000.45,2000.45,2000.02,2000.6,2000.64,2000.74,2000.9,2001.14,2001.52,2002.35,2003.53,2011.69,2014.89,2007.69,2011.45,2014.59,2016.68,2016.1,2013.31,2010.06,2006.78,2004.8,2003.61,2003.34,2005.69,1999.27,2002.2,2001.92,2001.34,2000.92,2000.82,2001.68,2003.21,2000.91,2000.73,2000.69,2000.85,2000.64,2000.63,2000.7,2000.81,2001.14,2001.85,2002.5,1998.28,2004.27,1995.93,2005.04,2003.66,1997.12,2000.77,2001.43,2000.99,2001.05,2001.13,2000.91,2000.85,2000.85,2000.91,2001.14,2001.35,2001.17,2001.04,2001.03,2001.06,2001.12,2001.16,2001.17,2001.2,2001.31,2001.7,2001.44,2001.52,2001.66,2001.85,2002.12,2002.46,2002.93,2003.66,2004.86,2004.25,2004.79,2003.78,2002.93,2002.38,2002.07,2002.06,2001.74,2002.62,2000.21,2002.29,2001.8,2001.61,2001.49,2001.5,2001.74,2002.01,2001.56,2001.54,2001.53,2001.54,2001.58,2001.78,2001.94,2001.79,2002.03,2000.41,1997.49,1994.71,1998.71,2000.5,2001.84,2001.87,2001.84,2004.14,2002.09,2001.68,2001.65,2001.66,2001.73,2002.6,2004.03,2003.19,2002.65,2002.78,2002.38,2002.5,2002.96,2003.9,2005.92,2010.99,2008.03,1996.52,1989.28,1985.66,1985.37,1988.34,1994.83,2005.49,2012.45,2006.32,2004.29,2004.46,2007.98,1996.18,1992.88,1996.8,2007.76,2003.87,2006.14,2007.27,2002.3,2001.46,2001.2,2001.14,2001.23,2001.32,2001.16,2001.07,2001.57,2001.05,2000.34,2000.94,2000.83,2000.8,2000.78,2000.76,2000.75,2000.73,2000.72,2000.7,2000.68,2000.66,2000.65,2000.63,2000.62,2000.61,2000.6,2000.59,2000.58,2000.58,2000.57,2000.57,2000.57,2000.59,2000.63,2000.64,2000.6,2000.54,2000.5,2000.49,2000.48,2000.51,2001.03,2000.51,2000.47,2000.58,1997.77,2001.53,1998.52,2001.46,2001.07,1998.18,1997.27,2001.57,2000.55,2000.51,2000.54,2000.73,1998.58,2001.55,2001.12,2001.19,2001.06,2000.85,2000.66,2000.56,2000.61,2000.56,2001.82,2000.35,1998.12,2000.68,2000.42,2000.43,2000.46,2000.88,1997.1,1996.18,2001.28,2000.45,2000.37,2000.39,2000.49,2000.23,2001.21,2003.52,1996.54,1995.13,2001.87,2001.42,2000.79,2000.85,2000.45,2000.36,2000.35,2000.34,2000.37,2000.51,2001.09,2001.29,2000.58,2000.45,2000.42,2000.42,2000.62,2001.98,1994.61,1999.16,2000.8,2000.47,2000.44,2000.45,2000.5,2000.57,2000.77,2001.48,2003.51,1999.42,2005.16,2001.47,2000.93,2000.83,2000.85,2001.35,2001.69,2001.1,2001.2,2001.7,1999.02,2002.07,2003.36,1997.62,1996.42,2001.56,2002.25,2002.51,2002.71,2003.08,2003.62,2005.6,2002.61,2006.63,2007.68,2009.6
2000.23,1999.42,2000.68,2000.22,2000.24,1997.96,2000.3,2000.35,2000.47,2000.21,2000.18,2000.18,2000.18,2000.19,2000.19,2000.19,2000.18,2000.19,2000.2,2000.25,2000.66,1998.95,2002.44,2000.42,2000.29,2000.24,2000.22,2000.21,2000.21,2000.21,2000.22,2000.23,2000.24,2000.25,2000.27,2000.29,2000.33,2000.36,2000.41,2000.46,2000.83,1999.45,2000.93,2000.94,2000.92,2001.19,2001.39,2001.76,2001.5,2001.14,2001,2001.63,1998.21,2001.21,2000.91,2001.32,2000.61,2000.37,2000.33,2000.3,2001.11,2000.31,2000.21,2000.2,2000.2,2000.23,2001.55,2000.5,2000.23,2000.22,2000.23,2000.24,2000.26,2000.26,2000.26,2000.28,2000.54,2000.38,2000.29,2000.3,2000.37,2000.43,2000.39,2000.44,2000.78,2000.97,2000.61,2000.67,2000.8,2000.99,2001.29,2001.87,2000.59,2006.97,2004.89,2008.97,2017.9,2013.51,2006.73,2003.61,2003.87,2007.55,2014.97,2012.62,2007.64,2004.94,2003.46,2003.04,2003.04,2001.63,2002.75,2001.16,2000.91,2000.8,2000.77,2000.93,2000.24,2001.22,2001.88,2001.58,2000.69,2000.66,2000.67,2000.73,2000.87,2001.23,2002.33,2007.06,2001.55,2003.82,2003.85,2001.95,2001.91,2001.47,2000.88,2002.35,2003.2,2001.44,1998.87,2001.01,2000.88,2000.95,2000.96,2000.99,2001.02,2001.65,2001.13,2001.13,2001.15,2001.19,2001.23,2001.29,2001.39,2001.56,2001.58,2001.72,2001.92,2002.27,2003.18,2003.61,2004.33,2006.58,2012.08,2007.74,2009.74,2007.46,2004.37,2003.1,2002.4,2002.06,2001.9,2001.85,2001.86,2001.71,2001.61,2001.57,2001.55,2001.6,2002.5,1998.48,2001.77,2001.02,2002.08,2000.42,2001.75,2002.31,1998.75,2002.15,2001.99,2003,2003.25,1998.8,2003.21,2003.22,2002.22,2001.82,2001.74,2001.75,2001.73,2001.93,2001.83,2001.8,2001.77,2002.46,2002.79,2000.58,2000.85,2002.53,2002.19,2002.67,2004.15,2004.23,2005.78,2008.92,2016.72,2004.35,1996.55,1992.72,1992.41,1995.56,2002.49,2014,2008.77,2005.25,2003.92,2003.22,2004.24,1996.44,1993.08,1997.18,2008.11,2003.32,1995.78,1996.67,2006.56,2001.77,2001.33,2001.12,2001.07,2001.05,2001.04,2001.29,2001.38,2001.15,1998.75,2001.46,2000.9,2000.82,2000.8,2000.8,2000.83,2000.83,2000.76,2000.71,2000.68,2000.67,2000.65,2000.64,2000.63,2000.62,2000.61,2000.6,2000.6,2000.59,2000.6,2000.6,2000.62,2000.74,2001.27,2001.41,2000.77,2000.57,2000.51,2000.49,2000.48,2000.48,2000.48,2000.47,2000.48,2000.5,2000.56,2000.6,2000.71,2000.63,2002.28,2001.7,2001.92,2000.69,2000.54,2000.55,2000.67,2000.91,2001.21,2001.75,2002.72,2003.23,2002.47,2001.49,2000.93,2000.72,1998.01,2000.71,2000.71,1997.65,2000.8,2000.47,2000.42,2000.43,2000.49,2000.71,2002.73,2001,2000.83,2000.43,2000.38,2000.38,2000.47,2000.14,2001.27,2002.83,1993.21,1991.89,1998.18,2001.82,2001.91,1997.28,2000.64,2000.41,2000.36,2000.35,2000.39,1999.55,1997.99,1996.51,2000.97,2000.41,2000.37,2000.4,2000.55,2001.87,1998.79,2004.03,2000.77,2000.53,2000.46,2000.47,2000.49,2000.53,2000.63,2000.85,2001.28,2001.62,1999.7,2001,2000.81,2000.78,2000.8,2000.9,2001,2000.99,1999.46,2001.21,2001.4,2001.95,1999.6,2004.44,2005.39,2003.62,2002.76,2002.41,2002.66,2003.1,2003.64,2005.53,2006.28,2005.42,2007.68,2009.47
1999.53,2000.34,2000.25,2000.18,2000.17,2000.2,2000.17,2000.17,2000.18,2000.2,2000.23,2000.2,2000.21,2000.27,2000.23,2000.2,2000.17,2000.17,2000.18,2000.24,2000.82,1996.83,2000.02,2000.58,2000.28,2000.21,2000.19,2000.21,2000.23,2000.2,2000.22,2000.23,2000.22,2000.22,2000.23,2000.25,2000.27,2000.29,2000.32,2000.35,2000.41,2000.58,2000.54,2000.56,2000.64,2000.71,2000.79,2000.84,2000.82,2000.76,2000.7,2001.31,1998.02,2001.07,2000.47,2000.7,2000.54,2000.73,2001.96,2000.58,1998.76,2000.4,2000.22,2000.21,2000.22,2000.23,2000.27,2000.3,2000.27,2000.25,2000.25,2000.28,2000.37,2000.4,2000.32,2000.28,2000.28,2000.28,2000.29,2000.32,2001.07,1999.06,2000.54,2000.57,2000.53,1999.84,2000.62,2000.7,2000.85,2001.07,2001.43,2002.18,2001.91,2006.09,2010.05,2017,2011.14,2001.17,1995.03,1992.19,1992.43,1995.77,2002.48,2013.14,2008.26,2007.19,2004.08,2002.8,2002.16,2001.76,2001.39,2001.11,2000.94,2000.81,2000.74,2000.75,2001.03,1999.73,2001.48,2001.25,1998.94,2000.73,2000.68,2000.73,2000.82,2001,2001.37,2002.06,2003.08,2002.46,2001.74,2001.29,2001.09,2000.99,2001.1,1999.3,1998.09,2001.21,2001.33,2000.96,2000.92,1999.54,2001.05,2001.01,2001.09,2001.74,2001.78,2001.74,2001.29,2001.33,2001.36,2001.42,2001.51,2001.64,2001.8,2002,2002.28,2002.96,1999.99,2003.12,2007.08,2012.57,2002.32,1998.37,1999.56,2006.84,2007.08,2001.41,2002.86,2003.68,2002.06,2001.91,2001.88,2001.73,2001.67,2001.64,2001.64,2001.67,2001.87,2002.08,2001.73,2001.72,2001.71,2001.74,2001.79,2004.77,2000.83,2002.08,2001.9,2002.19,2002.99,2003.64,2002.96,2002.25,2001.96,2001.95,2001.79,2001.75,2001.76,2002.94,2002.14,2003.09,2001.85,2001.98,2001.95,2001.94,2001.99,2002.32,2002.17,2002.33,2002.72,2003.77,2003.07,2000.61,2011.13,2015.21,2008.23,2003.96,2003.61,2007.11,2014.88,2009.9,2006.12,2004.34,2003.37,2003.32,2005.05,2004.16,2000.63,2002.21,2004.7,2001.67,1994.36,1995.22,2004.77,2001.91,2001.98,2001.13,2001.06,2001.03,2001.03,2001.41,2001.57,2000.92,2002.01,2001.24,1998.8,2000.9,2000.98,2001.05,2001.61,2002.11,2000.96,2000.75,2000.7,2000.68,2000.66,2000.65,2000.64,2000.63,2000.62,2000.62,2000.63,2000.63,2000.39,2000.73,2000.72,2001.08,1998.2,1996.94,2001.37,2000.62,2000.53,2000.5,2000.49,2000.48,2000.48,2000.49,2000.56,2000.89,2000.52,2000.49,2000.49,2000.5,2001.39,2001.13,2000.59,2000.53,2001.35,2001.09,2001.68,1998.73,2001.73,2004.2,2003.76,2000.13,2004.66,2003.32,2001.38,2000.81,2000.66,2000.55,2000.66,2000.73,2000.5,2000.48,2000.5,2000.59,1999.78,2000.76,2000.68,2000.65,2000.49,2000.4,2000.38,2000.38,2000.43,2001.22,2001,2005.33,1997.58,1996.14,2003.03,2001.36,2000.81,2001.03,2001.25,2000.78,2000.45,2000.4,2000.39,2000.64,2002.35,2000.63,2000.71,2000.4,2000.41,2000.8,2000.45,2001.88,2002.54,2000.7,2000.68,2000.57,1999.83,2001.14,2000.79,2000.51,2000.55,2000.63,2000.73,2000.79,2000.79,2000.76,2001,2000.77,2000.79,2000.83,2000.87,2000.94,2001.02,2001.08,2001.19,2001.57,2002.32,2001.94,2002.04,2002.06,2002.14,2002.35,2002.69,2004,2002.58,2004.5,2005.45,2007.02,2007.73,2009.54
1994.23,2001.25,2000.55,2000.23,2000.16,2000.14,2000.14,2000.15,2000.21,1999.32,1998.2,2000.36,2000.67,2000.76,2000.61,2000.2,2000.17,2000.16,2000.17,2000.21,2000.34,2000.82,2001.58,1998.97,2000.42,2000.21,2000.18,2000.27,2000.12,2000.22,2000.53,2001,2000.25,2000.21,2000.21,2000.22,2000.24,2000.25,2000.27,2000.29,2000.32,2000.35,2000.38,2000.42,2000.46,2000.5,2000.56,2000.65,2000.74,2000.79,2000.65,2000.55,2000.63,2000.69,2000.42,2000.92,1996.89,2001.16,2001.04,2000.81,2000.31,2000.24,2000.22,2000.22,2000.23,2000.26,2000.43,2001.15,2000.56,2000.29,2000.28,2000.41,2001.59,2001.83,2000.64,2000.31,2000.27,2000.27,2000.29,2000.31,2000.4,2000.49,2000.52,1998.77,2000.52,2000.54,2000.61,2000.72,2000.89,2001.14,2001.54,2002.22,2003.52,2005.95,2012.11,2016.03,2002.29,1992.99,1987.22,1984.54,1984.77,1987.92,1994.22,2004.14,2019.05,2010.97,2004.74,2002.99,2002.11,2001.61,2001.32,2001.73,2001.85,2000.87,2000.76,2000.78,1999.49,2001.46,2000.96,2002.85,1999.68,2000.76,2000.69,2000.89,2001.09,2000.74,2001.03,2001.31,2001.87,2001.32,2001.27,2001.14,2000.98,2000.92,2000.96,2001.25,2001.33,2001,2001.01,2001.01,2000.94,2000.98,2000.72,2001.3,2001.81,1998.94,2001.47,2001.54,2001.81,2001.76,2001.6,2001.59,2001.71,2001.9,2002.15,2002.44,2002.8,2003.44,2007.02,2007.04,2011.02,2012.97,2004.99,2000.88,1999.31,2003.77,2010.29,2004.93,2003.25,2002.69,2002.83,2002.38,1999.27,2001.91,2001.81,2001.88,2001.74,2001.76,2001.82,2001.93,2001.84,2001.76,2001.74,2001.77,2001.84,2001.92,2001.96,2001.87,2001.87,2001.95,2002.11,2002.29,2002.39,2002.14,2002.03,1999.06,2001.94,2001.81,2001.83,2001.82,2001.83,2001.96,2000.89,2002.05,2001.88,2001.89,2001.95,2002.71,2002.16,2002.26,2002.58,2003.57,2001.44,1999.08,2008.44,2008.24,2010.79,2013.11,2013.33,2011.2,2008.35,2006.02,2004.45,2002.41,2002.92,2002.71,2002.99,2003.81,2004.37,2003.73,2003.06,2004.28,2001.04,2002.03,2003.01,2001.61,2001.26,2001.13,2001.07,2001.05,2001.04,2001.13,2001.79,2001.6,2002.37,2001.59,2001.06,2000.9,2001.05,2001.23,1999.01,1996.73,2001.36,2000.79,2000.72,2000.7,2000.68,2000.67,2000.66,2000.66,2000.65,2000.68,2001.26,2000.71,2000.9,1999.47,2001.36,2001.11,1999.96,1998.62,2001.34,2000.67,2000.55,2000.51,2000.51,2000.54,2000.51,2000.56,2000.82,1999.82,2000.59,2000.48,2000.47,2000.47,2000.5,1999.8,2000.75,2000.5,2000.71,2000.72,2001.02,2001.86,2002.38,2004.75,1994.44,1991.75,1995.65,2007.87,2002.55,2000.95,2000.65,2000.53,2000.52,2000.47,2000.5,2000.89,2001.32,2001.12,1998.51,2001.82,2000.78,2000.51,2000.45,2000.45,2000.38,2000.38,2000.41,2000.48,2000.68,2001.37,2002.62,2002.58,2001.51,2000.79,2000.58,2001.14,1996.28,2000.4,2001.39,2000.42,2000.4,2000.42,2000.53,2000.55,2000.45,2000.43,2000.39,2000.49,2000.39,2000.44,2000.51,2001.09,2000.73,2000.44,2000.49,2001.83,2000.97,2000.49,2000.5,2000.55,2001.32,2000.65,2000.63,2000.71,1999.01,2000.86,2000.95,2001.06,2000.88,2001.02,2001.15,2001.11,2001.12,2001.23,2001.38,2001.59,2000.96,2001.83,2002.08,2002.65,2003.6,2003.48,2004.37,2004.32,2005.25,2006.5,2008.08,2010.24
2001.65,1995.64,2003.33,2000.35,2000.17,2000.14,2000.15,2000.16,2000.18,2000.69,1998.16,2000.51,2001.27,2002.26,1998.64,2000.25,2000.64,2000.18,2000.29,2000.48,2000.21,2000.34,2002.2,2000.69,2000.52,2000.21,2000.18,2000.17,2000.18,2000.21,2001.93,1999.53,2000.34,2000.23,2000.22,2000.21,2000.22,2000.23,2000.24,2000.25,2000.27,2000.29,2000.31,2000.33,2000.36,2000.39,2000.57,1998.04,2001.16,1998.87,2000.62,2000.45,2000.46,1999.17,2000.44,2000.42,2001.04,2000.54,2000.26,2000.23,2000.23,2000.23,2000.26,2000.23,2000.25,2000.33,2000.98,1996.25,2002.52,2000.34,2000.3,2000.54,1998.54,1995.71,2001.16,2000.34,2000.28,2000.28,2000.29,2000.31,2000.34,2000.6,1999.39,2000.54,2000.53,2000.55,2000.62,2000.74,2000.92,2001.19,2001.61,2002.33,2003.67,2006.86,2015.46,2010.3,1997.18,1988.23,1982.65,1980.05,1980.28,1983.33,1989.41,1998.96,2012.86,2010.01,2005.2,2003.18,2002.18,2001.62,2001.33,2001.63,2000.36,2000.9,2000.8,1998.59,2000.85,2001.01,2001.22,2000.96,2001.93,2000.73,2000.69,2000.74,2000.82,2001.06,2000.91,1999.05,2001.12,2001.23,2001.89,2003.94,2001.04,2000.91,2000.91,2000.94,2000.95,2000.95,2001.77,2002.33,2000.98,2001,2001.09,2001.15,2001.21,2001.29,2001.52,2003.05,2001.52,2004.66,2003.03,2001.85,2002,2002.34,2002.81,2003.32,2003.78,2004.37,2005.69,2009.06,2015.08,2006.11,2002.21,2002.72,2007.74,2010.99,2012.02,2005.66,2003.67,2003.03,2004.67,2002.26,2002.32,2001.93,2001.9,2001.96,2001.89,2001.99,2002.31,2000.17,2002.91,2001.38,2001.86,2001.94,2001.09,2002.12,2001.97,2001.9,2001.89,2001.93,2002.03,2003.01,1999.23,2003.18,2002.08,2002.03,2001.91,2001.9,2000.2,2001.88,2001.88,2001.98,2002.53,2002.05,2001.92,2001.93,2001.96,2002.02,2002.09,2002.21,2002.42,2002.88,2004.23,2005.39,2004.71,2005.35,2005.89,2006.44,2006.48,2005.95,2005.25,2004.32,2003.47,2003.05,2002.6,2002.38,2002.35,2002.41,2002.4,2002.25,2002.13,2002.23,2002.53,2002.33,2001.76,2001.4,2001.23,2001.15,2001.14,2001.14,2001.14,2001.2,2002.52,1996.61,1997.55,2002.69,2001.28,2000.93,2000.88,2000.96,2001.82,2004.15,2001.59,2000.84,2000.74,2000.78,2001.21,2000.7,2000.77,2000.84,2000.7,2000.71,2002.31,2000.77,2000.82,2001.77,2001.74,2001.18,2001.08,2002.04,1999.29,2000.82,2000.6,2000.7,2000.58,1998.11,2000.57,2000.89,1998.61,2004.26,2001.02,2000.52,2000.61,2000.56,2000.48,2000.52,2000.5,2000.49,2000.59,2001.36,2000.87,2001.11,2002.54,2002.96,1992.95,1990.34,1994.27,2005.72,2002.25,2001.06,2000.72,2000.61,1998.66,2000.53,2000.6,2000,1996.39,2002.16,1997.15,1998.86,2001.87,2000.58,2000.5,2000.69,2000.4,2000.39,2000.4,2000.43,2000.51,2000.64,2000.79,2000.81,2000.68,2000.54,2000.48,2000.75,2001.18,2001.43,2000.68,2000.79,2000.42,2000.82,2000.61,2000.57,2000.69,1998.55,2000.45,2000.35,2000.35,2000.37,2000.46,1999.09,2002.53,2000.43,2000.47,2000.65,2000.62,2000.49,2000.48,2000.51,2000.98,2000.59,2000.58,2000.61,2000.68,2000.81,2000.01,2001.12,2000.96,2002.37,2000.35,2001.52,2001.12,2001.15,2001.25,2001.4,2001.62,2001.84,2002.37,2003.86,1998.77,2003.39,2003.63,2004.4,2005.5,2007.04,2009.16,2011.94
2002.28,1996.53,2000.53,2000.36,2000.17,2000.16,2000.35,2001.04,2000.18,2000.36,2002.42,2000.39,2001.59,2002.39,2000.38,2000.58,2000.47,2000.18,2000.18,2000.19,2000.18,2000.23,2000.5,1997.65,2000.54,2000.2,2000.17,2000.17,2000.17,2000.18,2000.25,2000.3,1998.5,2000.58,2000.76,2000.21,2000.24,2000.27,2000.27,2000.23,2000.24,2000.25,2000.26,2000.28,2000.29,2000.31,2000.37,2000.72,2002.46,2000.47,2000.51,2000.75,2000.82,2000.55,2000.68,2000.33,2000.29,2000.25,2000.23,2000.22,2000.22,2000.27,1998.87,2000.25,2000.28,2000.51,2001.71,2002.28,2000.77,2000.33,2000.29,2000.4,2001.18,2001.93,2000.58,2000.32,2000.28,2000.28,2000.29,2000.32,2000.34,2000.42,2000.59,2000.47,1998.65,2000.57,2000.63,2000.76,2000.94,2001.21,2001.68,2002.42,2003.76,2005.58,2020.35,2008.28,1995.36,1986.52,1981.01,1978.45,1978.67,1981.69,1987.69,1997.11,2010.79,2010.91,2005.41,2003.27,2002.21,2001.63,2001.29,2001.14,2001.01,2000.84,2000.78,2000.82,2000.79,2001.06,2000.83,2000.77,2000.92,2000.72,2000.76,2000.73,2000.78,2001.16,2000.98,2000.98,2001.01,2001.34,1997.65,1999.36,2001.11,2000.92,2000.97,2001.61,2000.96,2000.96,2001.01,2001.05,2001.03,2001.04,2001.09,2002.32,2002.55,2001.31,2001.73,2002.55,1995.23,1997.88,2003.04,2002.13,2002.45,2003.21,2004.45,2005.84,2006.67,2006.56,2007.81,2014.44,2004.45,1996.44,1992.91,1993.38,1997.91,2007.13,2013.37,2006.34,2004.17,2000.13,2004.66,2002.03,2002.18,2001.99,2001.95,2001.98,2002.19,2002.96,2003.56,2000.72,2003.05,2002.17,2001.96,2002.09,2003.23,2002.83,2002.59,2002.03,2001.96,2001.98,2002.09,2003.76,1998.54,2003.44,2002.06,2002.07,2001.96,2001.95,2001.95,2001.94,2001.94,2001.96,2001.98,2001.98,2002.08,2002.01,2002,2002.04,2002.1,2002.2,2002.32,2002.51,2002.81,2003.11,2003.38,2003.83,2004.01,2004.15,2004.15,2004.07,1999.85,2002.16,2003.06,2002.61,2002.39,2003.97,2002.25,2002.25,2002.37,2002.07,2000.46,2001.75,2001.66,2001.57,2001.42,2001.3,2001.21,2001.24,2001.46,2003.52,2001.47,2001.24,2001.64,2003.47,2002.24,1998.5,2001.47,2000.94,2000.88,2000.87,2000.92,2001.05,2000.6,2000.84,2000.74,2000.78,2000.99,2000.74,2001.78,1998.31,2000.81,2000.73,2000.77,2000.87,2001.04,2001.14,2001.06,2000.89,2000.81,2001.62,2001.04,2000.8,2000.64,2001.13,2000.53,2000.56,2000.53,2000.81,2000.26,2002.35,2000.97,2000.58,1998.69,2001.95,2000.53,2000.5,2000.49,2000.5,2000.66,1998,2001.13,2000.98,2001.92,2006.64,1998.24,1995.4,1999.68,2006.84,2002,2001.33,2000.96,2000.72,2000.83,2000.49,2000.56,2001.82,2000.62,2001.65,1998.2,2001.26,2001.8,2000.73,2000.6,2000.45,2000.43,2000.42,2000.41,2000.42,2000.44,2000.47,2000.5,2000.5,2000.49,2000.48,2000.45,2000.51,1999.19,2000.98,2000.41,2000.38,2000.47,1998.05,2000.82,2000.69,1998.68,2001.19,2000.39,2000.34,2000.34,2000.38,2000.55,2000.53,2000.45,2000.42,2001.17,1999.01,2000.62,2000.54,2000.47,2000.48,2000.53,2001.02,2000.57,2000.58,2000.7,1998.95,2000.88,2001.45,2001.02,2000.5,1996.37,2002.04,2001.1,2001.11,2001.2,2001.32,2001.48,2001.94,2001.89,2002.61,2003.14,2003.1,2003.65,2004.59,2006.01,2008.25,2011.87,2017.77
2000.52,2000.81,2000.46,2000.23,2000.17,2000.31,2000.96,2000.69,2000.17,2000.17,2000.2,2000.24,2000.86,2001.68,2001.05,2000.64,2000.34,2000.17,2000.16,2000.16,2000.2,2000.35,2000.31,2000.3,2000.22,2000.18,2000.18,2000.19,2000.17,2000.17,2000.18,2000.19,2000.24,2000.34,2000.22,2000.23,2000.77,2001.58,2000.11,2000.22,2000.22,2000.24,2000.26,2000.25,2000.25,2000.26,2000.28,2000.31,2000.32,2000.38,2000.9,2000.88,1999.12,2001.65,2000.47,2000.33,2000.26,2000.24,2000.26,2000.23,2000.24,2000.25,2000.25,2000.25,2000.31,2000.99,1996.22,1998.65,2000.6,2000.32,2000.29,2000.3,2000.36,2000.39,2000.34,2000.31,2000.29,2000.29,2000.3,2000.38,2000.71,2000.37,2000.4,2000.44,2000.5,2000.56,2000.66,2000.79,2000.97,2001.25,2001.91,2002.85,2003.59,2006.44,2013.15,2015.73,1996.68,1987.76,1982.2,1979.61,1979.84,1982.88,1988.94,1998.46,2012.35,2009.7,2005.23,2003.18,2002.16,2001.6,2001.26,2001.06,2000.92,2000.83,2000.78,2000.86,2001.74,1997.56,1999.44,2000.94,2000.76,2000.83,1998.18,2000.82,2000.83,1999.76,2001.45,2002.2,2002.03,2001.16,2001.98,2002.66,2001.04,2000.94,2000.97,2001.44,2000.98,2001,2001.13,2001.94,2001.73,2001.12,2001.15,2001.93,2001.41,2001.34,2001.66,2003.76,1998.81,2001.73,2002.73,2002.4,2003.13,2005.13,2010.63,2006.47,2012.84,2013.1,2011.26,2012.01,1999.05,1991.46,1988.09,1988.54,1992.85,2001.57,2016.15,2006.84,2004.23,2003.66,2002.74,2002.42,2002.17,2002.21,2002.16,2002.14,2002.86,1996.55,1998.83,2005.84,2002.51,2002.1,2002.05,2002.26,2001.57,1996.73,2005.38,2002.17,2002.06,2002.09,2001.08,2002.82,2002.53,2002.27,2002.1,2002.04,2002.07,2002.05,2002.03,2002.03,2002.03,2002.03,2002.03,2002.05,2001.44,2002.16,2002.05,2002.08,2002.12,2001.69,2002.45,2002.35,2002.47,2002.63,2002.79,2003.07,2003.23,2003.18,2003.24,2003.15,2004.7,2002.97,2003.72,2002.94,2002.37,2002.91,2002.7,2003.04,2002.76,2002.14,2001.96,2001.62,2001.49,2001.41,2001.34,2001.27,2001.21,2001.22,2001.68,2003,2001.42,2001.24,2001.18,2001.36,2001.69,2001.89,2001.11,2000.93,2000.88,2000.86,2000.85,2000.84,2000.83,2000.78,2000.75,2000.74,2000.73,2000.73,2000.87,2001.09,2000.42,2000.84,2000.9,2001.31,2002.3,2003.08,2002.19,2001.23,2000.85,2000.75,2000.74,1998.73,2000.58,2000.53,2000.51,2000.5,2000.5,2000.55,2000.93,2000.92,2000.54,2000.54,2000.83,2000.74,2000.62,2000.62,2000.57,2000.53,2000.54,2000.66,2000.66,2000.8,2001.24,2002.4,2004.97,2006.97,2004.55,2002.61,2002.9,2002.15,2002.63,2001.11,2000.62,2000.5,2000.69,2000.66,2000.98,2001.38,2001.18,2001.21,2000.97,2000.62,2000.55,2000.51,2000.51,2000.53,2000.47,2000.49,2000.5,2000.44,2000.43,2000.43,2000.62,2001.12,2000.59,2000.7,2001.28,2000.59,2000.4,2000.42,2000.62,2000.55,2000.4,2000.38,2000.47,2000.4,2000.38,2000.34,2000.34,2000.42,1997.95,2001.01,2000.39,2000.4,2000.65,2002.17,2001.88,2000.52,2000.45,2000.47,2000.52,2001.21,2000.56,2000.58,2000.66,2001.12,2000.85,2001.03,2000.94,2001.43,2002.09,2001.53,2001.07,2001.08,2001.16,2001.3,2001.5,2001.63,2001.85,2002.13,2002.55,2001.92,2003.73,2004.87,2006.82,2010.51,2019.05,2009.55
